Stokes I Q U V
 Time (s)               Data...
0.000240199995000	-0.000011743950400	-0.000003591090490	-0.000004870731570	0.000000000000000
-0.000000232379548	0.000000000000000	0.000000000000000	0.000000000000000	0.000000000000000
0.000480399991000	-0.000011743950400	-0.000003591090490	-0.000004870731570	0.000000000000000
-0.000000232379548	0.000000000000000	0.000000000000000	0.000000000000000	0.000000000000000
0.000720600015000	-0.000011743950400	-0.000003591090490	-0.000004870731570	0.000000000000000
-0.000000232379548	0.000000000000000	0.000000000000000	0.000000000000000	0.000000000000000
0.000960799982000	-0.000011743950400	-0.000003591090490	-0.000004870731570	0.000000000000000
-0.000000232379548	0.000000000000000	0.000000000000000	0.000000000000000	0.000000000000000
0.001200999950000	-0.000011743950400	-0.000003591090490	-0.000004870731570	-0.000000232379548
0.001441200030000	-0.000011743950400	-0.000003591090490	-0.000004870731570	-0.000000232379548
0.001681400000000	-0.000011743950400	-0.000003591090490	-0.000004870731570	-0.000000232379548
0.001921599960000	-0.000011743950400	-0.000003591090490	-0.000004870731570	-0.000000232379548
0.002161799930000	-0.000011743950400	-0.000003591090490	-0.000004870731570	-0.000000232379548
0.002401999900000	-0.000011743950400	-0.000003591090490	-0.000004870731570	-0.000000232379548
0.002642199860000	-0.000011743950400	-0.000003591090490	-0.000004870731570	-0.000000232379548
0.002882400060000	-0.000011743950400	-0.000003591090490	-0.000004870731570	-0.000000232379548
0.003122600030000	-0.000011743950400	-0.000003591090490	-0.000004870731570	-0.000000232379548
0.003362799990000	-0.000011743950400	-0.000003591090490	-0.000004870731570	-0.000000232379548
0.003602999960000	-0.000011743950400	-0.000003591090490	-0.000004870731570	-0.000000232379548
0.003843199930000	-0.000011743950400	-0.000003591090490	-0.000004870731570	-0.000000232379548
0.004083400130000	-0.000011743950400	-0.000003591090490	-0.000004870731570	-0.000000232379548
0.004323599860000	-0.000011743950400	-0.000003591090490	-0.000004870731570	-0.000000232379548
0.004563800060000	-0.000011743950400	-0.000003591090490	-0.000004870731570	-0.000000232379548
0.004803999790000	-0.000011743950400	-0.000003591090490	-0.000004870731570	-0.000000232379548
0.005044199990000	-0.000011743950400	-0.000003591090490	-0.000004870731570	-0.000000232379548
0.005284399730000	-0.000011743950400	-0.000003591090490	-0.000004870731570	-0.000000232379548
0.005524599920000	-0.000011743950400	-0.000003591090490	-0.000004870731570	-0.000000232379548
0.005764800120000	-0.000011743950400	-0.000003591090490	-0.000004870731570	-0.000000232379548
0.006004999860000	-0.000011743950400	-0.000003591090490	-0.000004870731570	-0.000000232379548
0.006245200060000	-0.000011743950400	-0.000003591090490	-0.000004870731570	-0.000000232379548
0.006485399790000	-0.000011743950400	-0.000003591090490	-0.000004870731570	-0.000000232379548
0.006725599990000	-0.000011743950400	-0.000003591090490	-0.000004870731570	-0.000000232379548
0.006965799720000	-0.000011743950400	-0.000003591090490	-0.000004870731570	-0.000000232379548
0.007205999920000	-0.000011743950400	-0.000003591090490	-0.000004870731570	-0.000000232379548
0.007446200120000	-0.000011743950400	-0.000003591090490	-0.000004870731570	-0.000000232379548
0.007686399850000	-0.000011743950400	-0.000003591090490	-0.000004870731570	-0.000000232379548
0.007926600050000	-0.000011743950400	-0.000003591090490	-0.000004870731570	-0.000000232379548
0.008166800250000	-0.000011743950400	-0.000003591090490	-0.000004870731570	-0.000000232379548
0.008406999520000	-0.000011743950400	-0.000003591090490	-0.000004870731570	-0.000000232379548
0.008647199720000	-0.000011743950400	-0.000003591090490	-0.000004870731570	-0.000000232379548
0.008887399920000	-0.000011743950400	-0.000003591090490	-0.000004870731570	-0.000000232379548
0.009127600120000	-0.000011743950400	-0.000003591090490	-0.000004870731570	-0.000000232379548
0.009367800320000	-0.000011743950400	-0.000003591090490	-0.000004870731570	-0.000000232379548
0.009607999590000	-0.000011743950400	-0.000003591090490	-0.000004870731570	-0.000000232379548
0.009848199780000	-0.000011743950400	-0.000003591090490	-0.000004870731570	-0.000000232379548
0.010088400000000	-0.000011743950400	-0.000003591090490	-0.000004870731570	-0.000000232379548
0.010328600200000	-0.000011743950400	-0.000003591090490	-0.000004870731570	-0.000000232379548
0.010568799500000	-0.000011743950400	-0.000003591090490	-0.000004870731570	-0.000000232379548
0.010808999700000	-0.000011743950400	-0.000003591090490	-0.000004870731570	-0.000000232379548
0.011049199800000	-0.000011743950400	-0.000003591090490	-0.000004870731570	-0.000000232379548
0.011289400000000	-0.000011743950400	-0.000003591090490	-0.000004870731570	-0.000000232379548
0.011529600200000	-0.000011743950400	-0.000003591090490	-0.000004870731570	-0.000000232379548
0.011769799500000	-0.000011743950400	-0.000003591090490	-0.000004870731570	-0.000000232379548
0.012009999700000	0.011834021700000	0.001277332310000	-0.000652867020000	0.003137925410000
0.012250199900000	-0.006377096750000	-0.000984826824000	0.000467626553000	0.002577817300000
0.012490400100000	0.005033962430000	0.003491154640000	0.008439330380000	0.001381281410000
0.012730599400000	-0.005461107010000	-0.003092308300000	0.000616125704000	0.000769431237000
0.012970799600000	-0.002480258700000	0.000634453783000	-0.003494600770000	0.000765550591000
0.013210999800000	0.005406568290000	0.003766674080000	0.004976600410000	-0.000138642470000
0.013451200000000	0.012097951000000	-0.000080929865400	0.001952618010000	0.001856015180000
0.013691400200000	0.008325315080000	-0.008235336280000	0.009991821830000	0.001109635460000
0.013931599400000	0.001509730590000	-0.000182436997000	-0.003312351650000	0.000147232582000
0.014171799600000	0.005391043150000	0.001896042490000	0.007737334820000	0.001819795700000
0.014411999800000	-0.000741430733000	-0.000090597212000	0.006954339330000	0.001849547380000
0.014652200000000	-0.001393491170000	0.000387936452000	0.006576341580000	-0.000274465478000
0.014892400200000	0.006260456980000	-0.002932797190000	0.009870322420000	0.000941473700000
0.015132599500000	0.002720700110000	0.001741364950000	0.000103128645000	-0.002111309670000
0.015372799700000	-0.008550631810000	-0.001453693020000	-0.011986051700000	-0.001073880820000
0.015612999900000	-0.011438327800000	-0.007669797170000	-0.005992086140000	0.001748650330000
0.015853200100000	0.008791073230000	0.000378269091000	-0.003184102480000	0.000612911419000
0.016093399400000	-0.007463864050000	-0.000970325724000	-0.002596855860000	0.000153700341000
0.016333600500000	0.001432104270000	0.007681949530000	0.001095372950000	-0.000379243196000
0.016573799800000	0.002503346650000	-0.005339966620000	0.000919873943000	0.001508049550000
0.016813999000000	-0.003008117200000	-0.000409619650000	-0.006100085560000	0.000299871754000
0.017054200200000	0.001851286040000	-0.010724678600000	-0.004918842580000	-0.000092074595200
0.017294399400000	0.007300648840000	-0.000298445171000	-0.008874319490000	0.000457685121000
0.017534600600000	-0.010103156800000	-0.005905506200000	-0.008530071940000	-0.001767224750000
0.017774799800000	-0.002666561630000	-0.005238459450000	-0.006619832480000	-0.003518694550000
0.018014999100000	-0.004777995870000	-0.002845790940000	0.003221610790000	0.001592130520000
0.018255200200000	-0.002961541530000	-0.000390284957000	0.008905078280000	0.001374813730000
0.018495399500000	0.002534397180000	-0.002923129820000	-0.000301869033000	-0.001421846330000
0.018735600600000	0.009008426220000	0.003544325010000	-0.000443618221000	0.001306255460000
0.018975799900000	0.006570962260000	0.000890638446000	0.003633358280000	0.000343852531000
0.019215999200000	-0.011515954500000	0.002282736360000	-0.009387317110000	-0.003311726260000
0.019456200300000	0.001928912360000	0.011718066400000	0.004963100890000	-0.000795767060000
0.019696399600000	0.002782801170000	0.005216775930000	-0.000511117803000	-0.002212206830000
0.019936598800000	-0.004933248270000	0.000093082373500	-0.005290090570000	-0.001873296100000
0.020176800000000	-0.003660177810000	0.003916517830000	-0.008476071990000	-0.001124329280000
0.020416999200000	-0.001082986240000	0.001262831270000	-0.001044364760000	0.003836443650000
0.020657200400000	0.007719830610000	0.009973110630000	0.022431999400000	0.000906547764000
0.020897399600000	0.006943568120000	0.003906850700000	0.005658346690000	-0.000317152677000
0.021137598900000	0.001789185100000	0.004332213660000	-0.005546588920000	0.000658185745000
0.021377800000000	-0.000539602479000	-0.001637372650000	-0.001381862790000	-0.001881057400000
0.021617999300000	-0.006299470090000	-0.001593869650000	-0.001368362920000	-0.004027060700000
0.021858200400000	0.001416579120000	0.003283306720000	-0.003980597950000	-0.000480140268000
0.022098399700000	-0.003489400030000	0.003969688430000	-0.002603605860000	-0.000138642470000
0.022338599000000	0.004009295720000	0.008658351380000	0.013758299900000	0.000508133671000
0.022578800100000	0.009039476510000	0.005579301620000	-0.003872598520000	0.000634901808000
0.022818999400000	-0.012804550100000	-0.010995363800000	-0.003204352220000	-0.000474966073000
0.023059200500000	0.000640316575000	-0.012348792500000	-0.004270846020000	0.001299787660000
0.023299399800000	0.001183700280000	0.000068914007000	-0.000646117027000	-0.001693492290000
0.023539599000000	-0.005212702790000	-0.002575105290000	-0.001537111940000	0.001791337500000
0.023779800200000	0.001463154800000	-0.006480713370000	-0.001726110820000	-0.000775070221000
0.024019999400000	-0.015428317700000	0.005869321990000	-0.001773360530000	-0.004491446070000
0.024260200600000	-0.010460237000000	-0.000883319648000	-0.018209515100000	-0.001033780630000
0.024500399800000	0.007626679260000	0.007300089110000	-0.007531077600000	0.002249255080000
0.024740599100000	0.005096063480000	0.001383673170000	0.014514295400000	0.001544269030000
0.024980800200000	-0.005554258360000	-0.001357019650000	-0.001206363780000	0.000871621887000
0.025220999500000	-0.004545116800000	0.009088548830000	0.003977606540000	0.001357997530000
0.025461198800000	0.000593740784000	-0.005504311530000	-0.002320107310000	0.003101706040000
0.025701399900000	-0.000368824694000	0.000547447649000	0.004699852320000	-0.000971690170000
0.025941599200000	0.005639447360000	0.002103890530000	-0.003663349660000	-0.000321033353000
0.026181800300000	0.000671367045000	-0.004445736760000	-0.000342368789000	0.000376191339000
0.026421999600000	-0.011019146100000	0.000146252787000	-0.002468606460000	-0.002473504280000
0.026662198800000	-0.010227358900000	0.002886945610000	-0.011108556800000	-0.000710392604000
0.026902400000000	0.007673254700000	0.000199423186000	0.005293848920000	0.000448630279000
0.027142599200000	0.009551810100000	-0.004779260140000	0.012435307700000	0.000365842920000
0.027382800400000	0.000919771090000	-0.003169647190000	-0.001739610800000	0.000010116038500
0.027622999600000	-0.001176137710000	-0.001410190020000	-0.011587804200000	0.000117480879000
0.027863198900000	-0.003830955600000	-0.006973748100000	-0.005728838030000	-0.001446423820000
0.028103400000000	0.006275982600000	0.001842872120000	-0.008233073170000	0.001897408860000
0.028343599300000	0.005251315890000	-0.002241581910000	0.001682619560000	0.002980112100000
0.028583800400000	-0.003101268780000	-0.004513408060000	-0.002029859000000	0.001245458490000
0.028823999700000	-0.013767115800000	0.000271928293000	-0.007949574850000	-0.000238245993000
0.029064199000000	-0.007448338900000	0.008924203920000	-0.005566838660000	-0.000495662913000
0.029304400100000	0.001370003330000	0.000465275225000	-0.004777093420000	0.000056683922600
0.029544599400000	-0.001098511510000	-0.001004161430000	-0.004851342640000	-0.002512310860000
0.029784800500000	0.007580103350000	0.002379409740000	0.001817618850000	0.003806692080000
0.030024999800000	0.003481437450000	0.003002953720000	0.003167611080000	0.001955618620000
0.030265199000000	0.003077780830000	-0.004126714540000	-0.004804092930000	0.001664569370000
0.030505400200000	-0.002185279040000	0.009233558550000	-0.008145323950000	-0.001784040940000
0.030745599400000	0.000376387296000	0.004008357880000	0.003984356300000	0.002823592160000
0.030985798700000	0.002565447710000	0.008929037490000	0.004990100390000	0.001511930260000
0.031225999800000	-0.005476632160000	0.001228995620000	0.003808857410000	-0.001737473070000
0.031466200900000	-0.006718651860000	0.000122084413000	-0.003737599360000	-0.001221345740000
0.031706400200000	-0.004389864390000	-0.005596151110000	0.003370109950000	0.000858686341000
0.031946599500000	0.009520759810000	0.004390217830000	0.013150803700000	0.002024177000000
0.032186798800000	0.003993770570000	-0.000849483942000	-0.003906348250000	0.000663359941000
0.032426998000000	0.007129871290000	-0.003237318480000	-0.006619832480000	0.004472871310000
0.032667201000000	-0.008473005150000	-0.001830719640000	-0.013079545500000	-0.002379074930000
0.032907400300000	0.004552679600000	-0.000999327749000	0.002526364750000	0.000455098023000
0.033147599500000	0.006120729730000	0.007198581940000	0.024828236600000	0.005604729520000
0.033387798800000	-0.004979824180000	-0.001970896030000	-0.011648553400000	-0.001051890430000
0.033627998100000	-0.001564268950000	-0.006036015230000	-0.014719786100000	-0.000784125063000
0.033868201100000	-0.003039167730000	-0.006219694860000	-0.012654298000000	-0.002186335860000
0.034108400300000	-0.000927733723000	0.001997549550000	-0.002826354470000	0.001184661520000
0.034348599600000	-0.011329651800000	0.002480916910000	-0.006201335230000	-0.002487733490000
0.034588798900000	0.008107962090000	0.002229565990000	-0.001422362630000	0.000561169290000
0.034828998100000	0.010793830300000	0.012153097400000	0.012192308900000	0.003289271150000
0.035069201100000	0.007533527910000	0.002577590520000	0.011740061500000	0.002169054700000
0.035309400400000	-0.003939632330000	-0.000714141061000	-0.010055562500000	-0.000976864365000
0.035549599700000	0.003496962600000	-0.003730353200000	0.004888851200000	0.000095490489900
0.035789798900000	0.002037588970000	-0.005165954120000	0.005030600350000	0.002072038360000
0.036029998200000	0.006477810440000	-0.013059342300000	-0.010852058400000	0.003639823760000
0.036270201200000	0.008418466900000	-0.005194956440000	0.003160861090000	0.000105838910000
0.036510400500000	0.010529900900000	-0.014809132600000	0.000487876445000	0.002057809380000
0.036750599700000	-0.005119551440000	-0.005736327730000	-0.007315078750000	0.000734505302000
0.036990799000000	0.004816608970000	-0.004170217550000	-0.017507519600000	0.002122486940000
0.037230998300000	0.001664983110000	-0.002352756220000	-0.017305022100000	0.001422675090000
0.037471201300000	0.000578215579000	-0.010521664300000	-0.007787575950000	-0.002223848830000
0.037711400500000	-0.007634641600000	-0.018482724200000	-0.024493729700000	0.001444665480000
0.037951599800000	0.019456919300000	-0.004759925420000	-0.007389328440000	0.002517020330000
0.038191799100000	0.011958223800000	-0.007988818920000	-0.017095772500000	-0.000363720581000
0.038431998300000	0.009412082840000	-0.004576246250000	-0.019296260600000	0.001787456920000
0.038672201300000	0.023819515500000	-0.016853775800000	-0.026194719600000	0.006924152840000
0.038912400600000	0.021816758400000	-0.020706214000000	-0.039870142900000	0.001687853360000
0.039152599900000	0.061452720300000	-0.034433845400000	-0.049131088000000	0.007319979840000
0.039392799100000	0.077024549200000	-0.031180784100000	-0.054517556000000	0.002294529460000
0.039632998400000	0.092968978000000	-0.040751457200000	-0.079735413200000	0.002745979230000
0.039873197700000	0.121721745000000	-0.044057689600000	-0.105871260000000	0.003000808880000
0.040113400700000	0.166496560000000	-0.065702877900000	-0.114409961000000	0.005140344610000
0.040353599900000	0.179925904000000	-0.078328430700000	-0.130549118000000	0.006762458940000
0.040593799200000	0.221300691000000	-0.077642053400000	-0.146917775000000	0.003936047200000
0.040833998500000	0.282609910000000	-0.090378783600000	-0.166769415000000	0.006220460400000
0.041074197700000	0.361400545000000	-0.111994967000000	-0.199229971000000	-0.000643127889000
0.041314400700000	0.432583839000000	-0.131682515000000	-0.226898059000000	-0.000667705375000
0.041554600000000	0.544489861000000	-0.162163660000000	-0.267249346000000	-0.012244998500000
0.041794799300000	0.718419194000000	-0.204690322000000	-0.310827076000000	-0.043244980300000
0.042034998500000	0.885067225000000	-0.285523832000000	-0.385785401000000	-0.059944737700000
0.042275197800000	1.000000720000000	-0.302026004000000	-0.412306011000000	-0.075685977900000
0.042515400800000	0.999860942000000	-0.289439112000000	-0.378502190000000	-0.076965302200000
0.042755600100000	0.973064363000000	-0.287094772000000	-0.378846437000000	-0.065681643800000
0.042995799300000	0.952617586000000	-0.270486295000000	-0.327297002000000	-0.066686734600000
0.043235998600000	0.898807108000000	-0.283774048000000	-0.331913948000000	-0.055650144800000
0.043476197900000	0.766485393000000	-0.267668247000000	-0.289956212000000	-0.033873193000000
0.043716400900000	0.670710146000000	-0.209243640000000	-0.203610703000000	-0.029741587100000
0.043956600100000	0.585631728000000	-0.187521115000000	-0.157143965000000	-0.014427221400000
0.044196799400000	0.493815422000000	-0.165469900000000	-0.128017887000000	-0.005061902570000
0.044436998700000	0.448202223000000	-0.150055304000000	-0.091574847700000	-0.005280512850000
0.044677197900000	0.407448441000000	-0.126051292000000	-0.077629424600000	-0.007599852050000
0.044917400900000	0.363465428000000	-0.129207686000000	-0.061544265600000	-0.000997561147000
0.045157600200000	0.342739195000000	-0.114817835000000	-0.048624839600000	-0.004171938640000
0.045397799500000	0.311688691000000	-0.096870407500000	-0.044122617700000	-0.003519988150000
0.045637998700000	0.289549708000000	-0.082785077400000	-0.025371225600000	-0.002741269770000
0.045878198000000	0.269972354000000	-0.080160394300000	-0.016609774900000	0.004064108710000
0.046118401000000	0.229001224000000	-0.081363983500000	-0.001253613500000	0.002532542920000
0.046358600300000	0.187253818000000	-0.080025054500000	0.005509847780000	0.002969763710000
0.046598799500000	0.185235545000000	-0.073755778400000	0.018240274900000	0.007806355600000
0.046838998800000	0.161233500000000	-0.053246501800000	0.018753271500000	0.005287809300000
0.047079198100000	0.138504535000000	-0.056775085600000	0.009445074950000	0.004973476290000
0.047319401100000	0.128863364000000	-0.051221191900000	0.019860265800000	0.004938550290000
0.047559600300000	0.107609294000000	-0.049983773400000	0.017808277200000	0.003016331470000
0.047799799600000	0.102982767000000	-0.047624941900000	0.024699987800000	0.006102747280000
0.048039998900000	0.088404558600000	-0.031287126200000	0.020663511000000	0.003725198100000
0.048280198100000	0.079850144700000	-0.038034930800000	0.020994259000000	0.003434148850000
0.048520401100000	0.070177912700000	-0.027753708900000	0.023775242300000	0.005463732410000
0.048760600400000	0.070348687500000	-0.023137550800000	0.023093497400000	0.005186912140000
0.049000799700000	0.048240732400000	-0.024495814000000	0.011152815100000	0.002247961470000
0.049240998900000	0.040322855100000	-0.018748575800000	0.011166314600000	0.002863692350000
0.049481198200000	0.040027875500000	-0.016181895500000	0.030052706600000	-0.000895370555000
0.049721401200000	0.044700976500000	-0.010947027200000	0.017133280600000	0.005749607460000
0.049961600500000	0.033693574400000	-0.010715011500000	0.018881520300000	0.002096615960000
0.050201799700000	0.034174855800000	-0.000366116583000	0.018976019700000	0.005695278290000
0.050441999000000	0.022080687800000	-0.006466212220000	0.014818044400000	0.000324449240000
0.050682198300000	0.020077930800000	-0.006040849260000	0.013441052300000	-0.000027396978100
0.050922397500000	0.015482455500000	-0.001129837010000	-0.010352561300000	0.000673708390000
0.051162600500000	0.013526273900000	-0.012102275200000	0.002195616720000	0.000675001938000
0.051402799800000	0.012936314600000	0.001108153720000	0.003964106550000	0.002400600580000
0.051642999100000	0.013541800000000	0.001456178260000	0.004875351210000	0.001535214130000
0.051883198300000	0.007735355760000	-0.002666945100000	-0.005195590670000	0.001552030330000
0.052123397600000	0.010483325500000	-0.002778119640000	0.003052861660000	0.000405943050000
0.052363600600000	-0.000368824694000	0.003960020840000	0.000487876445000	-0.001189006960000
0.052603799800000	0.011259587500000	0.003031955800000	-0.001132114210000	0.000427933439000
0.052843999100000	0.000624791312000	-0.009960957800000	-0.008145323950000	-0.001106219600000
0.053084198400000	-0.006547874310000	-0.002183577740000	-0.012114301300000	0.001950444420000
0.053324397700000	-0.000803531730000	-0.006098852960000	-0.000153369881000	0.000663359941000
0.053564600600000	-0.006516824010000	-0.003604677740000	-0.002205358120000	0.000764257042000
0.053804799900000	-0.002992592050000	0.005120102780000	-0.006498333530000	0.002328161850000
0.054044999200000	0.005344467240000	-0.003179314550000	-0.004041347650000	-0.000010580797600
0.054285198500000	0.001944437620000	0.005057265050000	0.003619858530000	0.001866363570000
0.054525397700000	-0.000353299460000	-0.000723808422000	-0.008476071990000	0.000628434005000
0.054765600700000	0.008061386640000	0.000068914007000	-0.004088597370000	0.001412326700000
0.055005800000000	-0.004514066500000	0.002398744460000	0.001041373240000	-0.001912102690000
0.055245999200000	0.001633932580000	-0.001579368600000	-0.002441606720000	-0.002046632110000
0.055486198500000	-0.000989834662000	0.004844583110000	-0.003710599380000	0.001019086810000
0.055726397800000	0.001928912360000	-0.000269443117000	-0.001071364620000	0.002013828610000
0.055966600800000	0.019643222900000	0.001132322130000	0.012907804900000	0.000662066392000
0.056206800000000	0.007362749890000	-0.000776978792000	0.008702578950000	-0.000324913999000
0.056446999300000	0.000283235800000	-0.001526198230000	0.005820345600000	-0.001139851990000
0.056687198600000	-0.003691228340000	-0.007263768460000	-0.002711605280000	-0.002624850020000
0.056927397800000	-0.000260147965000	0.000010909929200	0.002094367290000	0.000111013120000
0.057167600800000	0.002053114350000	-0.002415594180000	0.001000873510000	0.000010116038500
0.057407800100000	-0.005212702790000	-0.001787216520000	-0.004885092840000	-0.002133300060000
0.057647999400000	-0.004917723130000	0.003940686120000	0.001129122800000	-0.001502046590000
0.057888198600000	-0.005041925240000	-0.007186429580000	-0.006498333530000	-0.001446423820000
0.058128397900000	0.007611154110000	-0.001371520690000	-0.000585367379000	0.001925866930000
0.058368600900000	0.000919771090000	0.003732838440000	-0.009306317200000	0.000739679555000
0.058608800200000	-0.001082986240000	-0.000187270678000	-0.004756843210000	0.001654220980000
0.058848999400000	0.000407437794000	-0.000569130876000	-0.008746070790000	0.000063151681400
0.059089198700000	0.002301518340000	0.009436572900000	-0.008361322810000	-0.003162967740000
0.059329398000000	0.003636689860000	0.004549729170000	-0.000490867940000	0.000843163696000
0.059569601000000	-0.003318622240000	-0.003150312460000	0.001399121250000	-0.001564137060000
0.059809800200000	0.005251315890000	-0.003358160380000	-0.002529356160000	0.002104377140000
0.060049999500000	-0.013937893300000	0.002654929180000	-0.010595560100000	-0.001529211180000
0.060290198800000	0.000205609555000	-0.008960387670000	0.002911112500000	-0.000980745070000
0.060530398000000	-0.000011743950400	-0.002507433760000	-0.000430118293000	-0.001397268850000
0.060770601000000	-0.007619116460000	-0.004523075650000	0.005044100340000	0.000764257042000
0.061010800300000	0.009241305290000	0.000721459917000	-0.001044364760000	-0.000102423008000
0.061250999600000	0.007983759980000	0.006855391430000	0.010133571000000	0.002087560950000
0.061491198800000	-0.008410904560000	-0.004605248100000	-0.008968818930000	0.000298578205000
0.061731398100000	-0.005383480340000	-0.018163701500000	-0.004952592310000	0.000039867740300
0.061971597400000	0.003574588800000	-0.001057331920000	0.003376859940000	0.002730456410000
0.062211800400000	0.008930800480000	0.004675404630000	0.010700567600000	0.000766844139000
0.062451999600000	0.003170932410000	0.001519015990000	0.007912834170000	0.003233648370000
0.062692202600000	0.007098820530000	0.004699572920000	0.001270871960000	-0.000199439426000
0.062932401900000	0.009722587650000	-0.000733475783000	0.005212849470000	0.000298578205000
0.063172601200000	0.003310659670000	0.001673693540000	-0.004534094590000	-0.002265242390000
0.063412800400000	0.003124356500000	-0.004146049260000	-0.000430118293000	0.000815999112000
0.063652999700000	0.001975488150000	0.005854820830000	0.002971862210000	-0.000819050998000
0.063893199000000	-0.000539602479000	0.006444529160000	-0.000389618508000	0.000133003501000
0.064133398200000	0.009396557700000	-0.000409619650000	0.000744374935000	0.001725366340000
0.064373597500000	-0.001471117490000	-0.005315797870000	-0.006802081600000	0.000433107634000
0.064613796800000	0.005825750060000	-0.012614645100000	-0.000862115819000	-0.000044213156800
0.064853996000000	0.004832134120000	0.004143700470000	0.002965112220000	-0.000972983718000
0.065094202800000	0.016615798700000	0.005231277090000	0.003255360530000	-0.001168310060000
0.065334402000000	-0.001036410450000	-0.000506293087000	-0.003055853300000	-0.000242126654000
0.065574601300000	0.003993770570000	0.004308045380000	0.002890862520000	0.002434232970000
0.065814800600000	0.008620294740000	0.004699572920000	0.005246599200000	-0.000568101823000
0.066054999800000	-0.008022773080000	0.002060387520000	-0.002846604450000	-0.001555082270000
0.066295199100000	-0.001533218430000	-0.001183007380000	0.000514876272000	-0.001023432240000
0.066535398400000	0.004801083820000	0.003302641450000	-0.001510112080000	0.001711137240000
0.066775597600000	0.008946325630000	0.000523279305000	-0.002758855000000	0.002357913410000
0.067015796900000	0.010762780000000	-0.009197237900000	0.009971572090000	0.002039699580000
0.067255996200000	-0.006470248100000	-0.009453422390000	0.000832124439000	-0.001460652910000
0.067496195400000	-0.013006378000000	-0.002657277740000	-0.010129812200000	-0.000741437834000
0.067736402200000	0.000578215579000	-0.000404785969000	-0.004493595100000	-0.000613376149000
0.067976601400000	-0.000415400456000	0.010248630300000	0.001736619280000	-0.001505927300000
0.068216800700000	-0.007696742660000	-0.009603266600000	-0.003278601910000	-0.000760841125000
0.068457000000000	-0.000089370201700	-0.003498337000000	-0.002266107830000	0.000270120043000
0.068697199200000	-0.001486642750000	-0.002517101120000	-0.004183096810000	-0.001337765480000
0.068937398500000	0.004909760320000	0.003582994450000	0.001770369010000	-0.000412875554000
0.069177597800000	-0.009404520500000	-0.012116776800000	-0.011203056200000	-0.000771189516000
0.069417797000000	-0.001160612450000	-0.002666945100000	0.002026867590000	-0.000066203545400
0.069657996300000	-0.004669318910000	0.000566782372000	0.003201360810000	-0.000972983718000
0.069898195600000	0.001199225550000	-0.005291629580000	-0.001442612500000	0.000372310693000
0.070138402300000	0.001199225550000	-0.003672349030000	0.003862857120000	-0.000776363770000
0.070378601600000	0.002037588970000	0.008576178920000	0.002924612490000	0.000020464456600
0.070618800800000	0.003543538270000	-0.000013258437300	0.004639102610000	-0.001552495170000
0.070859000100000	0.002223892140000	0.002635594460000	0.000224627947000	0.000250716752000
0.071099199400000	-0.001595319480000	0.005854820830000	-0.002590105870000	-0.004365971310000
0.071339398600000	-0.006470248100000	-0.012546973300000	-0.005398089530000	0.002210448500000
0.071579597900000	-0.000430925720000	-0.000530461490000	-0.004365345460000	0.000796595821000
0.071819797200000	0.013526273900000	0.001668859860000	0.012880804900000	0.003161209400000
0.072059996400000	0.004304275850000	0.005129769910000	0.002708613640000	-0.000773776672000
0.072300195700000	0.001866811300000	-0.001888723690000	0.009073827420000	-0.001853892810000
0.072540402400000	0.003667740380000	0.008803362030000	0.013805549600000	0.002341097220000
0.072780601700000	-0.003101268780000	0.000813299674000	0.007602335420000	-0.001173484260000
0.073020800900000	0.009831264620000	0.014743946500000	0.011038065900000	0.000414997892000
0.073261000200000	0.002798326310000	-0.000883319648000	-0.011783553300000	-0.000808702549000
0.073501199500000	0.005220265590000	-0.009844949470000	-0.003670099660000	0.000913015509000
0.073741398800000	-0.001921349790000	-0.005383469630000	-0.007686326750000	-0.002605446610000
0.073981598000000	0.018075171900000	0.006502533330000	0.002269866180000	0.002284181070000
0.074221797300000	-0.004219086840000	-0.003667515470000	-0.003845598550000	0.001057893390000
0.074461996600000	0.002146265940000	-0.000786646153000	0.006697840520000	0.002589459300000
0.074702195800000	0.006151780490000	-0.000762477808000	0.002742363370000	-0.000035158293000
0.074942402500000	0.003869568700000	0.001519015990000	0.019306767700000	0.000246836105000
0.075182601800000	0.004956336230000	0.005376287270000	0.020866008500000	-0.000738850737000
0.075422801100000	0.001664983110000	-0.006113354120000	0.001682619560000	-0.000588798663000
0.075663000300000	-0.005678460470000	0.003447651630000	0.000562125992000	-0.000890196359000
0.075903199600000	-0.010165257400000	-0.000815648178000	-0.010582059600000	-0.002776195530000
0.076143398900000	0.000221134804000	0.001567352680000	0.008824078370000	-0.001048009730000
0.076383598100000	-0.011904086000000	0.003491154640000	0.001709619420000	0.000070912996300
0.076623797400000	-0.005709510760000	-0.008883048780000	-0.004257346500000	-0.001499459500000
0.076863996700000	0.012082425900000	0.005956328010000	0.008351581170000	0.000492611027000
0.077104196000000	0.006617537700000	0.006096504630000	0.015304041100000	0.002694237050000
0.077344402700000	-0.007588066160000	-0.006094019390000	0.005563847250000	-0.000440040167000
0.077584601900000	0.002736225260000	0.004617400470000	0.008196332490000	0.001444665480000
0.077824801200000	-0.003535975700000	0.001818703720000	0.003255360530000	-0.001326123490000
0.078065000500000	-0.000850107463000	0.005303782410000	-0.008516571480000	0.000284349138000
0.078305199700000	0.002239417280000	-0.002555770570000	-0.003919848240000	0.001696908260000
0.078545399000000	0.006275982600000	0.002147393530000	0.004537852950000	0.001805566600000
0.078785598300000	-0.009311368690000	-0.005078948100000	-0.005620838610000	0.000122655081000
0.079025797500000	-0.001921349790000	-0.005697658290000	-0.006997830700000	0.002092735140000
0.079265996800000	0.002192841610000	-0.004953272640000	0.000217877983000	-0.000416756229000
0.079506196100000	0.000857670093000	-0.003672349030000	-0.001402112660000	0.000592214579000
0.079746395300000	-0.006128692530000	0.001523849670000	-0.002623855600000	-0.003133215940000
0.079986602100000	0.003574588800000	0.005661474080000	0.006198343820000	-0.001414085040000
0.080226801300000	0.000997397350000	-0.003609511300000	0.002465615050000	-0.001004028950000
0.080467000600000	-0.005507682450000	0.007324257870000	-0.001570861670000	-0.001906928490000
0.080707199900000	0.000143508558000	0.007145411800000	0.002222616460000	-0.000282226771000
0.080947399100000	0.003590114180000	0.004646402780000	-0.006248584950000	0.001624469300000
0.081187598400000	0.001633932580000	-0.001893557380000	0.003768357680000	-0.000437453040000
0.081427797700000	0.006043103520000	-0.002106239090000	0.010828817300000	-0.000086900385200
0.081667996900000	0.001618407320000	-0.001004161430000	0.001824368720000	-0.000099835902800
0.081908196200000	0.009707062510000	0.006642709490000	-0.002063608960000	0.000323155691000
0.082148395500000	-0.003008117200000	0.007440265730000	0.000069378838800	-0.001205823150000
0.082388602200000	-0.005445581400000	-0.001497196150000	-0.006565833000000	-0.003926163540000
0.082628801500000	-0.001595319480000	0.000871303782000	-0.002380857010000	0.000973812479000
0.082869000700000	-0.003256521190000	-0.006214861290000	-0.005236090630000	-0.001774986160000
0.083109200000000	-0.011314125700000	-0.004730923570000	-0.015273283200000	0.001381281410000
0.083349399300000	-0.001067460980000	-0.000820481859000	-0.003170602490000	-0.001091990500000
0.083589598500000	0.000671367045000	-0.003624012460000	0.006427842190000	-0.002151409860000
0.083829797800000	0.000702417572000	-0.000187270678000	-0.004014347680000	0.000297284656000
0.084069997100000	-0.015009135900000	-0.003300156210000	-0.009778814390000	-0.002802066740000
0.084310196300000	0.003155407030000	-0.003972036760000	0.004922600930000	-0.000855270424000
0.084550395600000	0.009707062510000	-0.007539287680000	0.000103128645000	0.000028225771500
0.084790602300000	-0.006858379110000	-0.007022084670000	-0.002941103880000	0.000491317478000
0.085030801600000	0.014550941100000	0.004902587270000	0.003835857150000	0.001376107220000
0.085271000900000	-0.006501298400000	-0.008099993690000	-0.005499339200000	0.000884557376000
0.085511200100000	-0.007774368860000	-0.012691984000000	-0.000760866387000	-0.000559046981000
0.085751399400000	0.001680508370000	-0.009250408040000	-0.004743343680000	-0.000807409000000
0.085991598700000	-0.002092127460000	0.001751032310000	-0.001955609540000	-0.002754205140000
0.086231797900000	0.007285123690000	-0.007273435590000	0.001905368290000	0.001189835720000
0.086471997200000	-0.004762470720000	-0.000588465540000	0.008277331480000	-0.000905719004000
0.086712196500000	-0.013829216400000	-0.010516830700000	-0.002164858390000	-0.000231778235000
0.086952395700000	-0.008721409370000	-0.011546403200000	-0.002529356160000	-0.001425727040000
0.087192602500000	0.009148153480000	-0.006596721240000	0.007919583470000	0.001661982270000
0.087432801700000	0.005546295550000	0.004158201630000	0.007973583420000	0.001144561450000
0.087673001000000	0.006074154280000	0.006144841200000	0.005246599200000	0.000619379163000
0.087913200300000	-0.002123177980000	-0.004634249960000	0.002047117570000	0.002800308400000
0.088153399500000	0.002503346650000	0.000436273171000	-0.005965086630000	-0.002060861090000
0.088393598800000	-0.011360702100000	-0.003541840010000	-0.011621554400000	-0.000661237573000
0.088633798100000	0.003962720280000	-0.004257223570000	0.002168616750000	0.001535214130000
0.088873997300000	0.000748993305000	-0.002608940940000	-0.008995818910000	-0.000869499519000
0.089114196600000	-0.008053823370000	-0.008506022390000	-0.003589100200000	-0.003298790660000
0.089354395900000	0.002192841610000	-0.004121880510000	0.000940123806000	-0.000331381772000
0.089594602600000	0.000345336797000	0.003529824080000	0.001655619710000	0.002097909340000
0.089834801900000	-0.005243753080000	-0.004291059450000	0.009357325730000	-0.001050596820000
0.090075001100000	-0.009373470210000	0.004598065750000	-0.004810843150000	-0.001041541920000
0.090315200400000	-0.006827328820000	0.003317142370000	-0.004689343740000	-0.003751534040000
0.090555399700000	-0.003691228340000	0.001983048630000	0.002870612780000	-0.001022138630000
0.090795598900000	-0.007401763000000	-0.005905506200000	-0.001402112660000	0.000593508128000
0.091035798200000	-0.002526834610000	-0.001429524740000	0.000838874432000	0.000033399981500
0.091275997500000	-0.000912208459000	-0.002323754360000	0.001439620970000	0.000499078829000
0.091516196700000	-0.002666561630000	-0.009380917060000	0.000332627329000	-0.000099835902800
0.091756396000000	0.004599255510000	-0.010628004600000	0.008662079460000	0.002753740410000
0.091996595300000	-0.009171641430000	-0.006949579810000	-0.009961063040000	-0.001662447120000
0.092236802000000	-0.003411773830000	-0.003841527740000	-0.001246863630000	-0.001544733760000
0.092477001200000	-0.006299470090000	0.007010068740000	0.005260099190000	0.001073415970000
0.092717200500000	-0.004529591650000	0.002621093530000	0.001561120270000	-0.005426684390000
0.092957399800000	-0.000725905469000	0.008721189570000	0.013670550700000	0.000588333933000
0.093197599100000	-0.001579794220000	-0.011614074000000	-0.003629599930000	-0.001341646070000
0.093437798300000	0.000050357051800	0.000851969060000	0.001338371540000	-0.001923744680000
0.093677997600000	-0.002728662690000	-0.000602966582000	0.006522341630000	-0.001371397750000
0.093918196900000	-0.012556145900000	-0.002531602280000	-0.010426810900000	-0.001953496360000
0.094158396100000	-0.004777995870000	-0.001975729830000	0.008560829800000	0.001032022290000
0.094398595400000	-0.005166126880000	-0.003503170560000	-0.001921859690000	-0.002672711390000
0.094638802100000	-0.003768854540000	0.007503103460000	-0.002070358950000	-0.000441333716000
0.094879001400000	0.000236660053000	0.000296096667000	-0.004534094590000	0.000583159679000
0.095119200600000	0.006555437110000	-0.012464800800000	0.000062628882000	0.001019086810000
0.095359399900000	-0.000912208459000	0.001649525130000	-0.002056858970000	-0.002133300060000
0.095599599200000	0.003310659670000	0.006415526850000	0.001102122940000	0.002095322360000
0.095839798500000	-0.008550631810000	-0.002608940940000	0.003046111670000	-0.002981870440000
0.096079997700000	-0.005585308650000	0.006135174070000	-0.003136852760000	-0.002392010530000
0.096320197000000	-0.007758843710000	0.002969118070000	0.004173355180000	-0.000812583196000
0.096560396300000	0.006555437110000	-0.001651873700000	0.010822067000000	0.001030728800000
0.096800595500000	0.006881467070000	-0.001125003330000	0.016721533600000	-0.000147697341000
0.097040802200000	-0.008504055440000	-0.004518242090000	-0.013228044800000	-0.002530420660000
0.097281001500000	-0.000803531730000	-0.004397400190000	0.010923316700000	0.002048754370000
0.097521200800000	-0.014760731700000	-0.007036585830000	-0.008314073090000	-0.001703840800000
0.097761400000000	-0.004622743470000	-0.001579368600000	-0.003697099400000	0.000694405171000
0.098001599300000	0.000857670093000	-0.001091167560000	0.001162872530000	0.000703460071000
0.098241798600000	-0.002821814270000	0.002132892610000	-0.004898592360000	-0.000098542354000
0.098481997800000	-0.005880288780000	0.006797387260000	-0.003420351070000	-0.002627437000000
0.098722197100000	0.005018437280000	0.000035078297500	-0.000099370190600	0.000570224191000
0.098962396400000	0.000609266048000	0.003012621080000	0.002411615340000	0.001385162120000
0.099202595700000	0.004521629310000	-0.004436069630000	0.007393086790000	0.001718898650000
0.099442802400000	-0.001952400200000	-0.010439491800000	-0.005553338680000	0.001338594240000
0.099683001600000	-0.006563399450000	0.003621663900000	-0.000828365970000	-0.003688149850000
0.099923200900000	-0.005942389370000	-0.003232484920000	-0.008084574710000	-0.003693324050000
0.100163400000000	-0.009901328010000	-0.009540428410000	-0.006154085510000	-0.000361133454000
0.100403599000000	0.004537154450000	0.002577590520000	0.003781857430000	0.002272539070000
0.100643799000000	0.002192841610000	0.005801650700000	0.013366802600000	0.003284096950000
0.100883998000000	0.007393800650000	-0.007312105040000	0.000231377911000	0.001731834140000
0.101124197000000	-0.003334147620000	-0.006509715230000	-0.003163852500000	-0.000831986486000
0.101364397000000	-0.001936874930000	0.010702995600000	-0.001152364190000	0.000536591804000
0.101604596000000	0.003357235340000	0.000233258907000	-0.012019801900000	0.000924657506000
0.101844795000000	0.004381902050000	0.009354400450000	0.006421092430000	0.000515894964000
0.102085002000000	-0.003768854540000	-0.002381758300000	-0.000079120305600	-0.000415462651000
0.102325201000000	-0.000104895451000	-0.002362423580000	-0.000322118896000	-0.000392178714000
0.102565400000000	0.008076911790000	0.001480346660000	0.002317115900000	0.000113600225000
0.102805600000000	-0.007060207430000	0.000165587480000	0.005077850070000	-0.001348113870000
0.103045799000000	0.003621164710000	0.000213924213000	0.010126820800000	0.004139135130000
0.103285998000000	-0.002169753660000	0.003215635430000	0.003457859390000	-0.000321033353000
0.103526197000000	-0.006920480170000	-0.003227651120000	-0.002900604160000	0.000502959476000
0.103766397000000	0.003450386920000	0.004975092600000	0.012840305500000	0.002721401630000
0.104006596000000	0.001338952800000	0.001475512980000	-0.002495606430000	-0.001495578790000
0.104246795000000	0.002767275790000	-0.004924270320000	-0.009576315990000	-0.000516359753000
0.104487002000000	-0.003706753490000	0.001006646660000	0.004564852920000	-0.000271878351000
0.104727201000000	-0.002247380090000	0.000880971143000	-0.004777093420000	-0.001675382610000
0.104967400000000	-0.002868389940000	-0.005320631900000	-0.000612367236000	0.001876711960000
0.105207600000000	0.002410195070000	-0.002913462460000	0.009742072780000	-0.000658650475000
0.105447799000000	0.002146265940000	-0.000201771691000	-0.003845598550000	0.000870328338000
0.105687998000000	-0.002231854710000	0.002567923160000	-0.007207079320000	-0.003622178690000
0.105928198000000	0.001758134570000	0.003863347460000	0.009357325730000	-0.003697204870000
0.106168397000000	0.001897861830000	0.010673993300000	0.012799806000000	-0.000947112683000
0.106408596000000	-0.002651036480000	0.007546606470000	0.001527370420000	-0.001582246860000
0.106648795000000	0.003590114180000	-0.005978011060000	0.005543597510000	0.001019086810000
0.106889002000000	-0.001874774000000	-0.003358160380000	-0.017899017800000	-0.001561549960000
0.107129201000000	-0.010832843400000	-0.008767040450000	-0.006930330770000	0.000898786471000
0.107369401000000	-0.001362440760000	-0.011739749500000	-0.000862115819000	-0.000533175946000
0.107609600000000	-0.006051066330000	-0.006471045780000	0.000265127717000	-0.002869331280000
0.107849799000000	-0.009885802870000	0.002645261820000	-0.008098074240000	-0.003122867550000
0.108089998000000	0.002860427370000	-0.002990801120000	0.001372121390000	-0.000718153897000
0.108330198000000	0.004552679600000	-0.002985967560000	-0.004426095170000	0.000946647895000
0.108570397000000	0.006462285300000	0.004762410650000	-0.002421356740000	0.000201561779000
0.108810596000000	0.004366376440000	0.006111005790000	0.010707317900000	0.001846960280000
0.109050795000000	0.000531639787000	0.000619952742000	0.003599608550000	0.001795218210000
0.109291002000000	0.004350851290000	-0.002575105290000	0.001831118720000	0.002368261800000
0.109531201000000	-0.002014501250000	0.001794535430000	0.010484568800000	0.000210616650000
0.109771401000000	-0.009031914170000	-0.000148601292000	0.000366377120000	-0.000185210360000
0.110011600000000	-0.006004490420000	-0.004919436760000	-0.001624861380000	-0.000868205971000
0.110251799000000	0.005561820700000	0.001577020040000	-0.001861110100000	0.002458810570000
0.110491998000000	0.007254073400000	-0.000341948209000	-0.003427101070000	-0.001267913610000
0.110732198000000	0.000795569038000	0.002732268070000	-0.000551617588000	-0.002900376680000
0.110972397000000	0.002317043490000	-0.000965492101000	0.016654033200000	0.001320484560000
0.111212596000000	0.009567335250000	0.011084855500000	0.014710044500000	0.000169222971000
0.111452796000000	0.004428477490000	0.011254034000000	0.001817618850000	-0.002438578520000
0.111693002000000	-0.012757974700000	0.000706958876000	-0.000787866244000	-0.002815002110000
0.111933202000000	-0.000725905469000	-0.006906076330000	0.004429853990000	-0.001042835530000
0.112173401000000	-0.001517693280000	-0.008124162440000	-0.004831092900000	0.000572811288000
0.112413600000000	-0.001222713500000	-0.000230773730000	-0.005634338130000	-0.002310516780000
0.112653799000000	0.006182830780000	0.000532946666000	-0.004297846000000	0.000925951055000
0.112893999000000	-0.001766097270000	-0.004078377500000	-0.001611361510000	-0.003138390140000
0.113134198000000	-0.002868389940000	-0.001062165600000	-0.006437583830000	0.001345062050000
0.113374397000000	-0.001455592220000	0.008919369430000	0.000082878767000	0.000094196941100
0.113614596000000	0.003931669520000	0.004984759730000	-0.000517867797000	0.002051341580000
0.113854796000000	-0.005973440130000	0.002360075250000	0.001743369270000	-0.001101045400000
0.114094995000000	0.010514375800000	0.006555703470000	0.012394808200000	0.002610156080000
0.114335202000000	-0.005057450380000	0.002621093530000	0.001243872100000	-0.000593972858000
0.114575401000000	-0.001703996210000	0.002998119920000	0.000629625632000	-0.002249719810000
0.114815600000000	-0.008395379410000	-0.000665804313000	-0.007301578760000	0.000655598647000
0.115055799000000	-0.017446599900000	-0.011295052200000	-0.008125074210000	-0.002406239740000
0.115295999000000	0.002751750640000	-0.004092878660000	-0.007861825640000	-0.000279639673000
0.115536198000000	-0.002123177980000	-0.005431806200000	-0.007477077660000	0.002171641910000
0.115776397000000	0.001928912360000	0.012491454400000	-0.002738605020000	-0.001485230400000
0.116016597000000	0.000407437794000	-0.000656137010000	-0.001550611810000	0.001202771210000
0.116256796000000	0.004894235170000	-0.003575675660000	-0.002137858420000	0.001063067580000
0.116496995000000	0.006959093270000	0.004235540520000	0.002431865320000	-0.002883560490000
0.116737202000000	-0.002604460810000	0.000213924213000	-0.001408862650000	0.002050047970000
0.116977401000000	0.002643073910000	0.006860225000000	0.002911112500000	-0.000720740994000
0.117217600000000	-0.003722278870000	0.000093082373500	0.005874345540000	-0.000143816680000
0.117457800000000	-0.009528722610000	-0.007089755960000	0.002897612520000	0.000501665927000
0.117697999000000	-0.000430925720000	-0.005702491850000	0.000879374158000	-0.000631485891000
0.117938198000000	0.004894235170000	0.003157631260000	-0.001516862070000	0.001039783700000
0.118178397000000	0.001835760780000	-0.006118187680000	-0.001793610400000	0.000098077594900
0.118418597000000	0.004676881710000	0.004791412970000	0.007642835380000	-0.000154165100000
0.118658796000000	-0.004451965450000	-0.005745994860000	-0.005236090630000	-0.002199271230000
0.118898995000000	-0.002666561630000	0.000460441544000	-0.009988063020000	0.002078506160000
0.119139202000000	0.000485064054000	-0.007181596010000	-0.002374107020000	-0.001733592480000
0.119379401000000	0.000236660053000	-0.007718133740000	-0.014112290000000	0.000606443617000
0.119619600000000	0.008449517190000	0.002137726170000	0.006488591900000	0.000418878568000
0.119859800000000	-0.008193550630000	0.000073747680300	0.000832124439000	-0.000568101823000
0.120099999000000	-0.003380723300000	-0.002889293940000	-0.003028853330000	0.002844289180000
0.120340198000000	0.001012922610000	-0.004566578660000	-0.000396368472000	0.001489939870000
0.120580398000000	-0.000555127684000	-0.002734616400000	-0.001361612930000	0.002523488130000
0.120820597000000	0.005127113780000	-0.003058472650000	0.009499074890000	0.002425178190000
0.121060796000000	0.007316173990000	-0.004527909220000	-0.002286357570000	0.000521069218000
0.121300995000000	0.008791073230000	-0.006398540920000	-0.001827360250000	0.001500288260000
0.121541202000000	-0.004219086840000	-0.008177332580000	-0.005742337550000	-0.000966515916000
0.121781401000000	0.005359992850000	-0.001840386890000	-0.002299857560000	0.000029519322200
0.122021601000000	0.003931669520000	0.007604610640000	0.006718090740000	0.000757789239000
0.122261800000000	-0.010568914000000	-0.007698799020000	-0.003089603040000	-0.004226267800000
0.122501999000000	0.001245801340000	-0.001371520690000	-0.009353566910000	0.002589459300000
0.122742198000000	0.004366376440000	-0.002009565480000	0.000062628882000	0.000029519322200
0.122982398000000	-0.009994479830000	-0.004600414540000	-0.001820610250000	0.000634901808000
