Stokes I Q U V
 Time (s)               Data...
-0.000003323344570	0.000000000000000	0.000000000000000	0.000000000000000	0.000000000000000
0.000300000014000	-0.000014606981500	-0.000005201109160	-0.000002955006720	0.000000000000000
-0.000003323344570	0.000000000000000	0.000000000000000	0.000000000000000	0.000000000000000
0.000349999988000	-0.000014606981500	-0.000005201109160	-0.000002955006720	0.000000000000000
-0.000003323344570	0.000000000000000	0.000000000000000	0.000000000000000	0.000000000000000
0.000399999990000	-0.000014606981500	-0.000005201109160	-0.000002955006720	-0.000003323344570
0.000449999992000	-0.000014606981500	-0.000005201109160	-0.000002955006720	0.000000000000000
-0.000003323344570	0.000000000000000	0.000000000000000	0.000000000000000	0.000000000000000
0.000500000024000	-0.000014606981500	-0.000005201109160	-0.000002955006720	0.000000000000000
-0.000003323344570	0.000000000000000	0.000000000000000	0.000000000000000	0.000000000000000
0.000549999997000	-0.000014606981500	-0.000005201109160	-0.000002955006720	0.000000000000000
-0.000003323344570	0.000000000000000	0.000000000000000	0.000000000000000	0.000000000000000
0.000600000028000	-0.000014606981500	-0.000005201109160	-0.000002955006720	0.000000000000000
-0.000003323344570	0.000000000000000	0.000000000000000	0.000000000000000	0.000000000000000
0.000650000002000	-0.000014606981500	-0.000005201109160	-0.000002955006720	0.000000000000000
-0.000003323344570	0.000000000000000	0.000000000000000	0.000000000000000	0.000000000000000
0.000699999975000	-0.000014606981500	-0.000005201109160	-0.000002955006720	0.000000000000000
-0.000003323344570	0.000000000000000	0.000000000000000	0.000000000000000	0.000000000000000
0.000750000007000	-0.000014606981500	-0.000005201109160	-0.000002955006720	0.000000000000000
-0.000003323344570	0.000000000000000	0.000000000000000	0.000000000000000	0.000000000000000
0.000799999980000	-0.000014606981500	-0.000005201109160	-0.000002955006720	-0.000003323344570
0.000850000011000	-0.000014606981500	-0.000005201109160	-0.000002955006720	0.000000000000000
-0.000003323344570	0.000000000000000	0.000000000000000	0.000000000000000	0.000000000000000
0.000899999985000	-0.000014606981500	-0.000005201109160	-0.000002955006720	0.000000000000000
-0.000003323344570	0.000000000000000	0.000000000000000	0.000000000000000	0.000000000000000
0.000950000016000	-0.000014606981500	-0.000005201109160	-0.000002955006720	0.000000000000000
-0.000003323344570	0.000000000000000	0.000000000000000	0.000000000000000	0.000000000000000
0.001000000050000	-0.000014606981500	-0.000005201109160	-0.000002955006720	-0.000003323344570
0.001049999960000	-0.000014606981500	-0.000005201109160	-0.000002955006720	-0.000003323344570
0.001099999990000	-0.000014606981500	-0.000005201109160	-0.000002955006720	-0.000003323344570
0.001150000030000	-0.000014606981500	-0.000005201109160	-0.000002955006720	-0.000003323344570
0.001200000060000	-0.000014606981500	-0.000005201109160	-0.000002955006720	-0.000003323344570
0.001249999970000	-0.000014606981500	-0.000005201109160	-0.000002955006720	-0.000003323344570
0.001300000000000	-0.000014606981500	-0.000005201109160	-0.000002955006720	-0.000003323344570
0.001350000040000	-0.000014606981500	-0.000005201109160	-0.000002955006720	-0.000003323344570
0.001399999950000	-0.000014606981500	-0.000005201109160	-0.000002955006720	-0.000003323344570
0.001449999980000	-0.000014606981500	-0.000005201109160	-0.000002955006720	-0.000003323344570
0.001500000010000	-0.000014606981500	-0.000005201109160	-0.000002955006720	-0.000003323344570
0.001550000040000	-0.000014606981500	-0.000005201109160	-0.000002955006720	-0.000003323344570
0.001599999960000	-0.000014606981500	-0.000005201109160	-0.000002955006720	-0.000003323344570
0.001649999990000	-0.000014606981500	-0.000005201109160	-0.000002955006720	-0.000003323344570
0.001700000020000	-0.000014606981500	-0.000005201109160	-0.000002955006720	-0.000003323344570
0.001750000050000	-0.000014606981500	-0.000005201109160	-0.000002955006720	-0.000003323344570
0.001799999970000	-0.000014606981500	-0.000005201109160	-0.000002955006720	-0.000003323344570
0.001850000000000	-0.000014606981500	-0.000005201109160	-0.000002955006720	-0.000003323344570
0.001900000030000	-0.000014606981500	-0.000005201109160	-0.000002955006720	-0.000003323344570
0.001949999950000	-0.000014606981500	-0.000005201109160	-0.000002955006720	-0.000003323344570
0.002000000090000	-0.000014606981500	-0.000005201109160	-0.000002955006720	-0.000003323344570
0.002050000010000	-0.000014606981500	-0.000005201109160	-0.000002955006720	-0.000003323344570
0.002099999930000	-0.000014606981500	-0.000005201109160	-0.000002955006720	-0.000003323344570
0.002150000070000	-0.000014606981500	-0.000005201109160	-0.000002955006720	-0.000003323344570
0.002199999990000	-0.000014606981500	-0.000005201109160	-0.000002955006720	-0.000003323344570
0.002249999900000	-0.000014606981500	-0.000005201109160	-0.000002955006720	-0.000003323344570
0.002300000050000	-0.000014606981500	-0.000005201109160	-0.000002955006720	-0.000003323344570
0.002349999970000	-0.000014606981500	-0.000005201109160	-0.000002955006720	-0.000003323344570
0.002400000110000	-0.000014606981500	-0.000005201109160	-0.000002955006720	-0.000003323344570
0.002450000030000	-0.000014606981500	-0.000005201109160	-0.000002955006720	-0.000003323344570
0.002499999940000	-0.000014606981500	-0.000005201109160	-0.000002955006720	-0.000003323344570
0.002550000090000	-0.000014606981500	-0.000005201109160	-0.000002955006720	-0.000003323344570
0.002600000010000	-0.000014606981500	-0.000005201109160	-0.000002955006720	-0.000003323344570
0.002649999920000	-0.000014606981500	-0.000005201109160	-0.000002955006720	-0.000003323344570
0.002700000070000	-0.000014606981500	-0.000005201109160	-0.000002955006720	-0.000003323344570
0.002749999990000	-0.000014606981500	-0.000005201109160	-0.000002955006720	-0.000003323344570
0.002799999900000	-0.000014606981500	-0.000005201109160	-0.000002955006720	-0.000003323344570
0.002850000050000	-0.000014606981500	-0.000005201109160	-0.000002955006720	-0.000003323344570
0.002899999960000	-0.000014606981500	-0.000005201109160	-0.000002955006720	-0.000003323344570
0.002950000110000	-0.000014606981500	-0.000005201109160	-0.000002955006720	-0.000003323344570
0.003000000030000	-0.000014606981500	-0.000005201109160	-0.000002955006720	-0.000003323344570
0.003049999940000	-0.000014606981500	-0.000005201109160	-0.000002955006720	-0.000003323344570
0.003100000090000	-0.000014606981500	-0.000005201109160	-0.000002955006720	-0.000003323344570
0.003150000000000	-0.053584728400000	0.028447920500000	0.010244029600000	0.006109000650000
0.003199999920000	0.020797420300000	0.011677150600000	0.021394709100000	-0.027700617900000
0.003250000070000	-0.015721475700000	0.034084860200000	0.009072288870000	0.037523962600000
0.003299999980000	-0.069206513500000	-0.015153745200000	-0.008159186690000	-0.027290483900000
0.003349999900000	-0.045807872000000	0.001967143970000	-0.004751184020000	-0.015211367000000
0.003400000050000	-0.008301979860000	-0.002596092410000	-0.024318482700000	-0.035817306500000
0.003449999960000	0.001721146630000	0.002328935080000	-0.039727252000000	0.004871982620000
0.003500000110000	-0.038745738600000	0.025156788500000	0.014839089500000	-0.032403931000000
0.003550000020000	0.055988974900000	0.030548643300000	0.008681708950000	0.030048936600000
0.003599999940000	0.066539630300000	0.016987310700000	0.002930225110000	-0.014305102600000
0.003650000090000	-0.051627751400000	0.030431935600000	-0.012455568600000	-0.017844164700000
0.003700000000000	-0.004779420790000	0.010229986200000	0.015995513600000	-0.098528161600000
0.003749999920000	0.070249378700000	0.018282756200000	-0.004789476280000	0.039409257500000
0.003800000060000	-0.025353206300000	0.035823792200000	-0.021316375600000	0.011639198300000
0.003849999980000	0.030122840800000	0.025425214300000	0.002141406530000	-0.053969059100000
0.003899999890000	-0.075451821100000	-0.009808573870000	-0.000148465246000	0.022851740900000
0.003949999810000	-0.029471367600000	0.039488386400000	0.002884274580000	-0.024803217500000
0.004000000190000	-0.007655326280000	0.037469357300000	0.005197121760000	-0.044946104300000
0.004050000110000	0.035040810700000	0.042709492100000	-0.019424744000000	-0.020040368700000
0.004100000020000	0.013054597200000	0.009506404400000	0.019388198900000	-0.006492706020000
0.004149999940000	0.032641384800000	0.030291887000000	0.012434341900000	-0.053122326700000
0.004199999850000	0.015011574100000	-0.006739184260000	-0.026723230300000	0.042253736400000
0.004250000230000	0.011012533700000	0.028214506800000	0.043213587300000	-0.024717221000000
0.004300000150000	-0.027701579000000	-0.017406188000000	0.020935203900000	0.051164235900000
0.004350000060000	-0.010905610400000	0.020091712500000	-0.020221220300000	-0.007895100860000
0.004399999980000	0.014024577100000	-0.011057336800000	-0.006750035100000	-0.002378133130000
0.004449999890000	-0.043952997800000	0.044740192600000	-0.004084900020000	0.062356934000000
0.004499999810000	-0.008301979860000	-0.026556002000000	0.036673285100000	-0.002080454960000
0.004550000190000	0.013973524800000	-0.005595457270000	-0.075959302500000	0.068601556100000
0.004600000100000	0.035193964800000	0.024853350600000	-0.028300868300000	-0.015131986700000
0.004650000020000	0.026225904000000	0.047891274100000	0.030469954000000	0.025947593200000
0.004699999930000	-0.035937901600000	-0.032379671900000	-0.044414211100000	0.015429632700000
0.004749999850000	-0.071622952800000	0.010615118800000	-0.021775882700000	0.007180641870000
0.004800000230000	-0.045926991900000	0.000975136121000	0.010504416200000	0.011883955400000
0.004850000140000	0.009276780300000	0.007370669390000	0.026265472200000	-0.029790978900000
0.004900000060000	-0.064254507400000	-0.024070145600000	0.000165530539000	0.040381673700000
0.004949999970000	0.024898562600000	-0.043735243400000	-0.048251088700000	0.039098348500000
0.004999999890000	-0.004319956530000	-0.005782188380000	0.009370967750000	-0.046632945500000
0.005049999800000	0.002418851480000	-0.002047570420000	-0.009162441830000	-0.041512880500000
0.005100000180000	-0.079467877700000	0.015411769000000	-0.003372665960000	-0.047545824200000
0.005150000100000	0.030616339300000	0.037282627100000	0.038105413300000	-0.000433302834000
0.005200000010000	-0.019669463900000	0.039535068000000	0.020414428800000	0.039720166500000
0.005249999930000	-0.008523203430000	-0.009528476740000	-0.012999317600000	-0.086369663500000
0.005299999840000	-0.004490128720000	-0.040269050700000	0.035455592000000	-0.019392091800000
0.005350000230000	-0.099497117100000	-0.009761890400000	0.031588085000000	0.014721820100000
0.005400000140000	0.027246935300000	0.015551817600000	0.003527583090000	-0.003846678420000
0.005450000060000	-0.014155893600000	0.013194339300000	0.006231009960000	0.027416138000000
0.005499999970000	0.005141602360000	0.000274895254000	-0.006489648480000	0.040242757600000
0.005549999890000	-0.041553575500000	0.001722059680000	0.038878914000000	-0.016163937700000
0.005599999800000	-0.007961635480000	0.016963969900000	0.019648585500000	0.044893149300000
0.005650000180000	-0.010548248900000	0.017885953200000	0.026556493700000	0.040705811200000
0.005700000100000	0.005124585240000	0.001383609950000	0.039269492000000	-0.032430391800000
0.005750000010000	0.037440232900000	0.039254970800000	-0.016514537900000	0.007934759370000
0.005799999930000	-0.016521284400000	0.022577567000000	0.000824155868000	-0.041201975200000
0.005849999840000	-0.049228329200000	-0.008303055540000	-0.001105769540000	0.045574501200000
0.005900000220000	-0.026067929300000	-0.023463271600000	-0.012991658400000	0.046090479900000
0.005950000140000	-0.001427033920000	0.004499681760000	0.010772461100000	0.040044304000000
0.006000000050000	0.018619218800000	0.007370669390000	-0.017303356900000	-0.057752877500000
0.006049999970000	-0.020656460900000	0.020266773200000	0.009562429040000	-0.042134698500000
0.006099999880000	0.052279226500000	0.023196114200000	0.060299553000000	-0.030564943300000
0.006149999800000	-0.052410543000000	0.026078771800000	0.047241922500000	-0.057759493600000
0.006200000180000	0.017921514800000	-0.039918933100000	-0.028798665900000	0.056145384900000
0.006250000090000	-0.011552263100000	0.050295434900000	-0.000814748986000	0.031537327900000
0.006300000010000	-0.009186874140000	0.012995937800000	-0.015771670300000	-0.046871088400000
0.006349999920000	-0.065394662300000	0.036057204000000	-0.005792730950000	0.022838510600000
0.006399999840000	0.026038715600000	-0.027046170100000	-0.010763054700000	0.049702305300000
0.006450000220000	0.032096836700000	-0.019121777300000	0.019166104500000	-0.047592129600000
0.006500000130000	0.009276780300000	-0.001277305420000	-0.003878122430000	0.002259030240000
0.006550000050000	0.032113853800000	-0.021187488000000	-0.016560489300000	0.025054559100000
0.006599999960000	0.079676903800000	-0.029975511100000	-0.003885780930000	0.011281984900000
0.006649999880000	0.021103728600000	0.029054796300000	0.031442575200000	0.049589850000000
0.006699999790000	0.017700290300000	0.021982362500000	-0.026952983800000	0.044542551000000
0.006750000180000	-0.008965650570000	-0.050177458700000	0.013062332800000	0.034017976400000
0.006800000090000	-0.003128753280000	-0.006797537670000	0.036091242000000	-0.036042220900000
0.006850000010000	0.016049623500000	0.017780916800000	-0.029288806000000	0.044502861800000
0.006899999920000	-0.025285137800000	-0.023311551700000	0.005327315070000	0.006386833270000
0.006949999840000	-0.049619723100000	-0.039790552100000	-0.010456717600000	0.025636684100000
0.007000000220000	-0.061361584800000	0.009308002890000	-0.000133148380000	-0.018406445200000
0.007050000130000	-0.062961198400000	0.034668393400000	0.035616420200000	0.020364474500000
0.007100000050000	-0.007144810630000	0.025471895900000	-0.021247450300000	-0.032053332800000
0.007149999960000	0.012867407900000	-0.000191932006000	-0.013152485700000	-0.023334672700000
0.007199999880000	-0.000899500970000	-0.012994669400000	-0.010081454200000	0.024234289300000
0.007249999790000	-0.040889903900000	0.002819103890000	-0.025467246800000	0.045620810200000
0.007300000170000	0.006434909070000	0.022834321500000	-0.000500753231000	-0.015224597400000
0.007350000090000	-0.059591796200000	0.028004434000000	-0.040071882300000	-0.015092295600000
0.007400000000000	0.060906942900000	0.025950394600000	-0.000531386933000	-0.017288498600000
0.007449999920000	-0.017133902800000	-0.016460862000000	0.007180655840000	-0.000102549384000
0.007499999830000	-0.004064698700000	0.011011921800000	-0.022442165800000	-0.043576784400000
0.007550000210000	0.010076588000000	0.021247109400000	0.004844833630000	0.033548306700000
0.007600000130000	0.095043428200000	0.027525937200000	0.042884275300000	-0.042954966400000
0.007650000040000	-0.013475206700000	-0.003074590350000	0.031764227900000	0.014847506800000
0.007699999960000	-0.015040787900000	-0.040759220700000	-0.006642817050000	-0.052910644600000
0.007749999870000	-0.015789544200000	-0.049745645400000	0.033686496300000	-0.014959994700000
0.007799999790000	-0.009305994030000	0.017547503100000	0.006384179000000	0.017381077600000
0.007849999700000	0.006792270110000	-0.036919567700000	0.013682666200000	-0.037570301400000
0.007899999620000	-0.025114966600000	-0.040093991900000	-0.053596675400000	0.046725526500000
0.007950000460000	-0.043697740900000	0.003215906910000	-0.031318292000000	-0.007372510150000
0.008000000380000	0.017921514800000	0.028331212700000	-0.037881568100000	-0.021654443800000
0.008050000300000	-0.041417434800000	-0.029672073200000	0.012533901300000	-0.016402078800000
0.008100000210000	0.080442681900000	-0.008536469190000	0.014057929600000	-0.031788729100000
0.008150000130000	0.069772899200000	-0.042964980000000	0.000234456442000	0.043107081200000
0.008200000040000	-0.054044194500000	-0.009621842760000	-0.022878697100000	-0.027429400000000
0.008249999960000	0.044519387200000	0.035333622200000	-0.040562022500000	0.022706208800000
0.008299999870000	0.010910430900000	0.028214506800000	-0.061722274900000	-0.004514800380000
0.008349999790000	-0.004779420790000	-0.005233666390000	-0.002131999700000	-0.004045130680000
0.008399999700000	-0.029454350500000	-0.000670429959000	-0.028676131700000	0.035850349800000
0.008449999620000	0.017955549100000	-0.029240258000000	0.015566641500000	0.015469322900000
0.008500000460000	0.053674634500000	-0.030138900500000	-0.014423785700000	-0.011791376400000
0.008550000380000	0.082722984300000	-0.001615755140000	0.033625226500000	0.030161391900000
0.008600000290000	-0.043493535400000	0.004102878740000	0.004017722790000	0.000823560287000
0.008650000210000	-0.045892957600000	-0.011069007200000	-0.030981319000000	-0.069421857600000
0.008700000120000	0.019521130200000	-0.025528980400000	0.028984217000000	0.010508021300000
0.008750000040000	0.052891843000000	-0.015959022600000	0.013606081700000	0.061635889100000
0.008799999950000	-0.038864858400000	0.001605352970000	0.020115749900000	-0.051098115700000
0.008849999870000	0.049369286700000	0.034143213200000	-0.032214328600000	0.016137445300000
0.008899999780000	0.035874653600000	0.021877326100000	0.009317358960000	0.075296007100000
0.008949999700000	0.018380977200000	-0.022728018500000	-0.005241323730000	-0.003568845570000
0.008999999610000	0.022652292600000	-0.023008113700000	0.012801946100000	0.037815026900000
0.009050000460000	-0.024076916300000	0.012494098400000	-0.017219115000000	-0.018585052300000
0.009100000370000	0.059069085900000	-0.024408595600000	-0.003319056940000	0.041922986500000
0.009150000290000	-0.017542315600000	-0.022844724400000	-0.026378601800000	-0.058917127500000
0.009200000200000	-0.001801412200000	-0.027267912400000	-0.004490797410000	0.052096962900000
0.009250000120000	0.013480026300000	-0.023218186600000	-0.011819918600000	-0.074720531700000
0.009300000030000	-0.003945578360000	-0.022634651500000	0.018538113700000	-0.042075164600000
0.009349999950000	0.065961048000000	-0.019343519600000	-0.009116491300000	-0.019028261300000
0.009399999860000	0.057860866200000	-0.000845490140000	-0.009912968610000	-0.010971107500000
0.009449999780000	-0.010956661800000	0.018434476100000	-0.007998360320000	0.012227939400000
0.009499999690000	0.042987838400000	-0.007474437360000	0.012763653900000	-0.012988704300000
0.009549999610000	0.020984608700000	-0.009295063090000	-0.029541533400000	0.000558957516000
0.009600000460000	-0.066109381600000	0.011735504500000	-0.028806325000000	-0.017129737900000
0.009650000370000	-0.073613964000000	-0.001545731090000	-0.029549192600000	-0.019782379300000
0.009700000290000	-0.016606370000000	-0.006715842990000	0.012733020800000	0.090530514700000
0.009750000200000	0.006877355740000	-0.017557906000000	0.010037251700000	0.033250629900000
0.009800000120000	-0.018716501100000	0.030116828200000	-0.027672875700000	-0.003674686650000
0.009850000030000	0.044162023800000	0.013357728700000	0.032292660300000	-0.069957681000000
0.009899999950000	0.027093781200000	-0.007229352840000	0.040747571700000	0.085721358700000
0.009949999860000	-0.074175529200000	0.044903580100000	-0.010027844500000	0.026430493200000
0.009999999780000	0.029067775200000	0.009681464170000	0.001942287200000	-0.080217652000000
0.010049999700000	-0.096587173600000	0.002480654050000	0.034973111000000	-0.050886433600000
0.010099999600000	0.046425312800000	0.008175946770000	0.051515329600000	-0.007974481210000
0.010150000500000	-0.009050736200000	-0.010158694300000	0.013062332800000	0.020463701300000
0.010200000400000	-0.001648257490000	-0.058883789900000	-0.009177758360000	-0.052857726800000
0.010250000300000	0.038954764600000	-0.023089809300000	0.046491395700000	0.026496643200000
0.010300000200000	-0.009169856090000	-0.026287576200000	-0.011904161400000	0.015462708700000
0.010350000100000	0.025409078200000	0.011420396200000	0.017672710100000	0.011321675000000
0.010400000000000	-0.001631240240000	0.004009513180000	0.017289789400000	0.019782347600000
0.010449999900000	0.008187679570000	-0.066539757000000	0.003106369170000	-0.055973421800000
0.010499999900000	0.018210806000000	0.045183677200000	0.017979048200000	0.021879324700000
0.010549999800000	0.010995516600000	0.008619432340000	0.049141213300000	-0.006380250210000
0.010599999700000	-0.014411151400000	-0.029275270200000	0.020736083400000	0.002120113930000
0.010649999600000	0.055240217600000	-0.051928062000000	0.013812859500000	-0.057395663100000
0.010700000500000	0.031620353500000	-0.041774570900000	0.005733211990000	-0.006750694010000
0.010750000400000	0.018363960100000	0.023347832300000	-0.023529663700000	-0.045872211500000
0.010800000300000	-0.039409406500000	0.030070144700000	-0.019715763600000	-0.008371385750000
0.010850000200000	0.001857284220000	0.040480393900000	0.034858234200000	-0.009072583170000
0.010900000100000	-0.012181899500000	0.000426614104000	0.022214161200000	-0.045733295400000
0.010950000000000	0.018636236000000	0.003250919050000	0.026058696200000	0.073853924900000
0.010999999900000	-0.005902555770000	0.020640233500000	0.016830282300000	0.012201479600000
0.011049999900000	0.015539106900000	-0.022763030600000	-0.008871421220000	-0.024498924600000
0.011099999800000	0.020457075900000	-0.011570846700000	0.013789884700000	-0.027694001800000
0.011149999700000	-0.066807083800000	-0.021175816700000	0.031840812400000	0.020675383500000
0.011199999600000	0.047020912200000	0.032532658400000	0.012916822900000	0.015019498800000
0.011250000400000	0.011250774400000	-0.050119105700000	-0.007776265500000	-0.032033488200000
0.011300000400000	-0.014598340700000	0.013906250700000	-0.018957579500000	0.029308047100000
0.011350000300000	-0.017593367000000	-0.018970059200000	-0.012394300700000	-0.030227573600000
0.011400000200000	-0.002975598440000	0.047669533600000	0.015964878700000	0.031219802800000
0.011450000100000	0.029016723900000	0.014863247100000	-0.017425892900000	-0.014305102600000
0.011500000000000	-0.034236181500000	-0.004731826950000	0.004086648580000	-0.000076089105300
0.011549999900000	-0.030713621500000	0.031447283900000	0.007931182160000	0.008258897810000
0.011599999900000	-0.060153365100000	0.025705309600000	-0.026294358100000	0.020794453100000
0.011649999800000	0.036044824900000	0.049081683200000	0.017887147100000	0.039508484300000
0.011699999700000	-0.005715366450000	-0.037573125200000	0.010619293000000	0.018737167100000
0.011749999600000	-0.032619547100000	0.024701630700000	-0.025153251400000	-0.038860239100000
0.011800000400000	0.006196668370000	0.013381070500000	-0.022863380600000	-0.038794089100000
0.011850000400000	0.017496084800000	0.005188252310000	-0.011689725300000	0.022540831900000
0.011900000300000	0.021427055800000	-0.006003931160000	0.000211481136000	-0.059135425800000
0.011950000200000	-0.014547289300000	-0.020277174200000	-0.002093707440000	0.029228666800000
0.012000000100000	-0.020758565500000	0.002854115800000	-0.000156123686000	0.010084657000000
0.012050000000000	-0.034865818900000	-0.005443738770000	0.044798884500000	0.007293097670000
0.012099999900000	-0.029590487500000	0.029264867300000	-0.005578294860000	-0.014887228600000
0.012149999800000	0.037797596300000	-0.024023463900000	0.001367904600000	-0.065373435600000
0.012199999800000	0.042698547200000	0.015633512300000	-0.032497689100000	0.004104634750000
0.012249999700000	-0.061667896800000	-0.031434346000000	-0.001726102670000	-0.009846545760000
0.012299999600000	0.017496084800000	0.004044525330000	-0.020213561100000	0.020847374600000
0.012350000400000	-0.051117237700000	-0.051099445700000	-0.009422828440000	-0.018717354200000
0.012400000400000	0.049709629300000	-0.028936820100000	-0.011720358400000	-0.087428078100000
0.012450000300000	-0.032840769700000	-0.053713675600000	-0.017111895600000	0.022163773000000
0.012500000200000	0.007421906110000	0.009716476310000	0.045120537300000	-0.023136220900000
0.012550000100000	-0.003486114320000	-0.026637695700000	-0.017877738900000	0.004660300440000
0.012600000000000	-0.032432358700000	0.006203601600000	0.010144470300000	0.003171909830000
0.012649999900000	-0.059778988400000	-0.017616258900000	0.023186782400000	-0.037094015600000
0.012699999800000	0.006656132640000	0.002165545710000	-0.040240366000000	-0.020734950900000
0.012749999800000	0.017615204700000	-0.010567167800000	-0.051368072600000	0.061265446200000
0.012799999700000	0.067764870800000	0.007020548920000	0.018966985900000	-0.020999552700000
0.012849999600000	-0.012301020300000	0.005071545490000	0.022030359100000	0.016812183000000
0.012900000400000	-0.033844783900000	-0.046571221200000	0.004017722790000	0.085681669400000
0.012950000400000	0.018517116100000	-0.007707851010000	-0.029840214200000	-0.008920436730000
0.013000000300000	-0.033164098900000	0.008561079390000	-0.015618501200000	0.042749866800000
0.013050000200000	0.007898387500000	-0.008174678310000	0.007058120800000	-0.003390238850000
0.013100000100000	0.036878667800000	-0.025657359500000	0.009325017220000	-0.000254695973000
0.013150000000000	0.028642345200000	0.009062917900000	-0.017992615700000	-0.071472533000000
0.013199999900000	-0.001086690110000	0.014734869800000	0.010075544000000	0.000519267109000
0.013249999800000	-0.006021676120000	-0.009610171430000	0.062727280000000	-0.035089649300000
0.013299999800000	0.030735459200000	-0.037293028100000	-0.036786411000000	0.054921597200000
0.013349999700000	-0.053669814000000	-0.023393247300000	-0.011069391900000	0.010852005300000
0.013399999600000	-0.099395014300000	-0.009493465540000	0.017358714700000	-0.038079660400000
0.013450000400000	0.018670270200000	-0.004008244720000	-0.054492712000000	-0.075004980000000
0.013500000400000	0.040401224000000	-0.011372445200000	0.029275238500000	-0.064639166000000
0.013550000300000	-0.078276671500000	0.006191930730000	-0.001481032700000	0.054041791700000
0.013600000200000	0.119990632000000	0.021107060800000	0.019617952400000	-0.014100035700000
0.013650000100000	0.034275036300000	0.012774194600000	0.041544050000000	0.029360968600000
0.013700000000000	0.016662241900000	-0.015924010400000	-0.045302592200000	-0.018942266700000
0.013749999900000	-0.010395094800000	-0.047960031800000	0.013506522400000	-0.047638434900000
0.013799999800000	-0.035018973100000	-0.012107697300000	0.003519924590000	-0.004448649940000
0.013849999800000	-0.047526609200000	0.001033489480000	-0.002645114670000	0.026648789600000
0.013899999700000	0.021563192800000	-0.006389063780000	-0.023391811200000	0.013345886000000
0.013949999600000	0.050883814700000	0.008035898210000	-0.016882143900000	-0.004144356590000
0.014000000400000	-0.087721213700000	0.021713936700000	-0.010372474800000	0.000929401431000
0.014050000300000	-0.006038693250000	0.029953438800000	0.042248625300000	0.034176737100000
0.014100000300000	-0.015142890600000	0.008817833850000	0.014976942000000	-0.002364902990000
0.014150000200000	-0.012028744400000	0.039826832700000	0.006093158390000	-0.047724433200000
0.014200000100000	0.055104080600000	0.007720789870000	0.015336887900000	0.035559289200000
0.014250000000000	-0.039426423600000	0.027175815800000	0.018775524600000	-0.018611513100000
0.014299999900000	0.054031997900000	-0.007135987280000	0.014594020300000	0.060273185400000
0.014349999800000	-0.019958756900000	0.024841679300000	0.018806157600000	-0.033072054400000
0.014399999800000	0.044400263600000	-0.018538244100000	-0.029985724000000	0.036108337300000
0.014449999700000	0.006741218270000	-0.005081947430000	0.009608379570000	0.014602749600000
0.014499999600000	-0.013985722300000	-0.029882146000000	0.021157298200000	0.011659043800000
0.014550000400000	0.056873869200000	0.019239751600000	0.028746806100000	-0.032165788100000
0.014600000300000	0.003082521960000	-0.009890268560000	0.025706406700000	-0.001994459190000
0.014650000300000	-0.047543626300000	-0.023008113700000	-0.011574848600000	-0.012247816700000
0.014700000200000	-0.028229111800000	-0.022973101600000	-0.037307187900000	0.000558957516000
0.014750000100000	0.007626112550000	-0.015387158800000	-0.009629606270000	-0.020086674000000
0.014800000000000	-0.036754727400000	-0.014488516400000	0.002646862990000	-0.011182790600000
0.014849999900000	0.075660847100000	0.005678420890000	-0.020420339000000	0.030194466900000
0.014899999800000	0.066114202100000	0.003145882860000	0.009960667230000	-0.026185767700000
0.014949999700000	-0.016572335700000	0.044495105700000	0.020291894700000	0.004117864650000
0.014999999700000	0.045438315700000	-0.022926420000000	0.041444487900000	0.043517217000000
0.015049999600000	-0.046913988900000	0.007358998990000	-0.002047756920000	-0.058506995400000
0.015100000400000	0.032301042200000	-0.028598370000000	0.004523179490000	-0.026165921200000
0.015150000300000	0.006519994700000	-0.002082582330000	0.022934055000000	0.002966842610000
0.015200000300000	0.022533172700000	-0.021374218200000	-0.031241707500000	-0.055292069900000
0.015250000200000	0.043226078200000	-0.004766839090000	-0.020114002700000	-0.016838673500000
0.015300000100000	0.024047702600000	0.020791953400000	-0.040493093400000	0.010805700000000
0.015350000000000	0.026447126600000	-0.029672073200000	0.002210332310000	-0.028798719900000
0.015399999900000	-0.006651312110000	0.034633379400000	-0.003962365440000	0.004296471360000
0.015449999800000	0.071117259600000	0.012400733300000	-0.005118788690000	0.046520456700000
0.015499999700000	0.021682312700000	-0.036020923400000	-0.027780095100000	0.014847506800000
0.015549999700000	0.025936611000000	-0.024280218400000	-0.003947048450000	0.056211534900000
0.015599999600000	-0.010156854100000	0.049910303200000	0.043259538700000	0.066954404100000
0.015650000400000	-0.065003268400000	0.016788909200000	0.010221053800000	-0.057342741600000
0.015699999400000	-0.010020716100000	0.006728781850000	0.007525285240000	0.036412634000000
0.015750000300000	0.043021872600000	0.031750723700000	-0.002453653840000	0.044218413500000
0.015799999200000	-0.000967569766000	0.009272990750000	-0.005141763950000	-0.074052408300000
0.015850000100000	-0.020945753900000	0.005024862480000	0.046744126800000	-0.045607611500000
0.015900000900000	0.016900481700000	-0.003914879170000	-0.022817429200000	-0.051369335500000
0.015949999900000	-0.046131197400000	-0.020790685000000	-0.015151336800000	0.080951891800000
0.016000000800000	0.000785201089000	-0.023848403200000	-0.012478543400000	-0.033581413300000
0.016049999700000	-0.019005794100000	-0.001347329470000	-0.026723230300000	0.040282446900000
0.016100000600000	-0.041961986600000	-0.063061893000000	0.019074203400000	0.048015464100000
0.016149999600000	0.048484392500000	0.005550043190000	-0.009821067560000	-0.042425762900000
0.016200000400000	-0.074805170300000	-0.013823287600000	0.045166488700000	0.018346877800000
0.016249999400000	-0.027684561900000	-0.031842820300000	0.006353545000000	-0.050760749700000
0.016300000300000	0.015947518900000	-0.034106932600000	-0.019378792500000	-0.021700749200000
0.016349999200000	-0.053550694100000	0.024258146100000	0.014004320800000	-0.063752748100000
0.016400000100000	0.028727430900000	-0.022914748600000	0.046698175400000	-0.076744742700000
0.016450000900000	-0.029420316200000	0.012820878100000	-0.011000465600000	-0.055788200300000
0.016499999900000	0.053334292000000	-0.012737914900000	-0.027887312700000	-0.011784761200000
0.016550000800000	0.004273725670000	0.020616892700000	0.029734743800000	0.045720033300000
0.016599999700000	-0.016061820100000	0.002492324680000	-0.000998551375000	-0.013372378400000
0.016650000600000	0.028387086500000	-0.035694144700000	0.009026338350000	-0.091622032200000
0.016699999600000	0.053555514700000	0.035263598000000	0.003213587220000	-0.076208919300000
0.016750000400000	-0.115221001000000	-0.022214507700000	-0.040944941300000	0.090854652200000
0.016799999400000	0.032028768200000	-0.012796267900000	0.035133939200000	-0.041221819800000
0.016850000200000	0.021886520100000	0.003554356750000	0.001253028170000	0.056833349200000
0.016899999200000	-0.024638485200000	0.032299246600000	-0.024494625600000	0.008708722890000
0.016950000100000	0.059494514000000	0.013987946300000	0.012388391400000	0.003998793660000
0.017000000900000	0.042868718500000	0.018037673100000	0.053881786800000	0.034170124700000
0.017049999900000	-0.003332959490000	-0.016344154300000	0.043542899200000	0.000902941101000
0.017100000800000	0.007575060710000	-0.003448052100000	-0.013719210400000	0.006909423970000
0.017149999700000	-0.040549557700000	0.023137759400000	-0.014913925900000	-0.002444283800000
0.017200000600000	0.006826304360000	-0.002817835430000	0.031618718100000	-0.061635922600000
0.017249999600000	-0.091822363400000	0.013019279600000	0.002003554720000	0.030247388400000
0.017300000400000	0.018840441500000	0.033104520300000	0.018921034400000	-0.006042881400000
0.017349999400000	0.104573056000000	-0.006050614170000	0.045066926600000	0.023162648100000
0.017400000200000	0.033407159100000	-0.017429528800000	-0.019899565700000	-0.056092493200000
0.017449999200000	-0.032755684100000	0.007662436460000	0.005426874380000	-0.023731576300000
0.017500000100000	0.041898738600000	0.013941262800000	0.023110197900000	0.026675250400000
0.017550000900000	0.047616515300000	-0.017079407300000	0.020422088000000	0.059823360300000
0.017599999900000	-0.036635603800000	-0.019273495300000	0.007004512010000	-0.048643928000000
0.017650000800000	-0.052580714200000	0.026557270400000	-0.024157654500000	0.011275369700000
0.017699999700000	-0.033827766800000	0.039675116500000	0.018469188400000	-0.034547213500000
0.017750000600000	0.090499840700000	0.067743107700000	-0.000408852007000	-0.015204751900000
0.017799999600000	-0.042115140700000	0.013906250700000	-0.011482947500000	0.071783408500000
0.017850000400000	-0.009867561050000	0.005106557160000	-0.028017506000000	-0.034838277800000
0.017899999400000	0.013377923500000	-0.043770257400000	0.032330952600000	0.006155306010000
0.017950000200000	0.047480378300000	0.031984135500000	0.010366564600000	-0.019497932900000
0.017999999200000	-0.025046896200000	-0.000483699056000	-0.032275594800000	-0.012896092600000
0.018050000100000	-0.009408096780000	-0.011734236000000	0.005380923860000	0.020490160200000
0.018100000900000	0.006860338620000	0.026148796100000	0.007272557360000	-0.026218842700000
0.018149999900000	0.049335252500000	0.013182668900000	0.020376138400000	-0.046712327700000
0.018200000700000	0.016372948900000	-0.016507545500000	0.007303190880000	-0.044172141700000
0.018249999700000	0.016883464500000	-0.015924010400000	0.014601678600000	0.014463832600000
0.018300000600000	0.010519035200000	0.066225916100000	-0.003112279110000	-0.011295246000000
0.018349999600000	-0.012266985100000	-0.011255738300000	0.017297446700000	0.038569144900000
0.018400000400000	-0.002260876350000	0.008572749790000	0.052235223400000	0.008219207640000
0.018449999400000	0.017887478700000	0.047144353400000	0.048007767600000	-0.013610520400000
0.018500000200000	0.041643481700000	0.009319673290000	-0.011567190300000	0.050509344800000
0.018549999200000	0.061417456700000	0.005550043190000	-0.001925221880000	-0.025014899700000
0.018600000100000	0.039193004400000	-0.030477350600000	0.001130493240000	0.014100004000000
0.018650000900000	-0.002277893480000	0.024619936900000	-0.006987446450000	0.006558825260000
0.018699999900000	-0.063675925100000	0.026615623400000	-0.020826237300000	-0.043583400500000
0.018750000700000	0.026174852600000	0.012622476600000	0.019143128800000	-0.013451758800000
0.018799999700000	0.052602551900000	-0.028143214100000	0.007249581630000	0.130816281000000
0.018850000600000	0.051683623300000	-0.003961562180000	0.016845598800000	-0.054174125200000
0.018899999600000	0.045693572600000	0.014979953900000	0.016439702400000	-0.027879225100000
0.018950000400000	0.049845766300000	-0.025342250200000	-0.026975959500000	-0.062469422800000
0.018999999400000	0.000819235458000	-0.002035899550000	0.034107711200000	0.032172374400000
0.019050000200000	-0.041553575500000	-0.016040718200000	0.030661413400000	0.020483546000000
0.019099999200000	0.053010962900000	0.014489784800000	-0.024693746100000	0.039138041400000
0.019150000100000	0.038478281300000	0.000776734552000	0.008735317740000	-0.091668337600000
0.019200000900000	-0.039817821200000	0.015271720500000	-0.033554554000000	0.023791080300000
0.019249999900000	-0.014615357900000	-0.025785736700000	0.039108667500000	-0.065638035500000
0.019300000700000	0.024405064100000	-0.011547504900000	0.017565492500000	0.017004018600000
0.019349999700000	-0.016010768700000	-0.006412405060000	-0.022036269300000	-0.054121203700000
0.019400000600000	-0.039511509200000	-0.006132308860000	0.006039549130000	0.001498297320000
0.019449999600000	0.018653253100000	0.000484967517000	-0.016637073800000	0.016031604300000
0.019500000400000	0.014194748400000	0.032917790100000	0.011025189400000	0.037385046500000
0.019549999400000	-0.052070200400000	0.053154751700000	-0.022855721400000	0.064771436200000
0.019600000200000	-0.010139836900000	0.001862107890000	0.011017531200000	-0.051541328400000
0.019649999200000	-0.008370048370000	-0.022681335000000	-0.015901863600000	-0.046533718700000
0.019700000100000	-0.018971759800000	-0.007124316880000	0.001773801630000	0.031676244000000
0.019750000900000	0.050220146800000	0.043853219600000	-0.014025547500000	-0.012175050600000
0.019799999900000	0.020933557300000	-0.007929593320000	-0.004383579360000	0.006975574420000
0.019850000700000	-0.025506360500000	-0.023089809300000	-0.004758842290000	-0.037854749700000
0.019899999700000	0.023230878600000	0.003577698020000	0.009064630610000	-0.002087070140000
0.019950000600000	0.029510222400000	-0.035647463100000	-0.002859550760000	0.055874165100000
0.019999999600000	0.032641384800000	-0.020382210600000	-0.022059245000000	-0.023321442300000
0.020050000400000	0.031007735100000	0.028891405100000	0.001360246210000	0.013769250400000
0.020099999400000	-0.043000035000000	0.006343649700000	0.006721150130000	0.026946468300000
0.020150000200000	-0.000167761711000	-0.010263729800000	-0.001710785790000	-0.014199261600000
0.020199999200000	0.034513276100000	0.027245840100000	-0.031310632800000	0.022091006900000
0.020250000100000	0.021614244200000	0.006938854230000	0.074337460100000	-0.000492838444000
0.020300000900000	-0.010939644600000	-0.049582254100000	0.017504224600000	-0.052460823200000
0.020349999900000	0.038648452600000	-0.025050483600000	0.015206694600000	0.021343505000000
0.020400000700000	-0.036805778700000	-0.001977546370000	-0.087431639400000	0.044390406500000
0.020449999700000	0.021427055800000	-0.014208420200000	0.003642459400000	-0.045931749000000
0.020500000600000	-0.008897581140000	-0.021934410600000	-0.022143486900000	0.036776460700000
0.020549999500000	0.035125896300000	0.006857159550000	-0.009859359820000	0.011348134800000
0.020600000400000	-0.059761971200000	-0.014768613500000	-0.009093515570000	-0.022210110000000
0.020649999400000	-0.000116710136000	-0.017697954600000	0.041291318800000	0.022911276700000
0.020700000200000	0.047123014900000	0.012587464400000	-0.007546512410000	-0.078405119500000
0.020749999200000	-0.050028134100000	-0.027396289600000	-0.028300868300000	0.006902808790000
0.020800000100000	-0.024944793400000	0.026954073500000	-0.024885207400000	-0.016461614500000
0.020850000900000	0.016628207600000	-0.004346694800000	-0.006818961350000	0.033177863800000
0.020899999900000	-0.036091055700000	-0.015655584600000	0.015888296100000	-0.142267004000000
0.020950000700000	0.073380544800000	0.036395654100000	0.028164764900000	0.022077776500000
0.020999999700000	0.037065856200000	-0.017861343900000	-0.015243238800000	-0.012624875600000
0.021050000600000	-0.044735789300000	0.019683238100000	-0.006803644360000	-0.015317208100000
0.021099999500000	-0.033861801000000	0.025868699000000	0.039315443500000	-0.009290880520000
0.021150000400000	-0.023260092400000	-0.018094757600000	0.003581192110000	-0.051984537400000
0.021199999400000	0.017717307400000	0.016392106200000	0.058116897900000	-0.065915875100000
0.021250000200000	0.047905806500000	-0.003763160440000	0.003182953460000	-0.008245699110000
0.021299999200000	-0.008131807670000	-0.030734105000000	-0.012984000100000	0.068098813300000
0.021350000100000	0.003950398880000	-0.031387664400000	-0.014875633600000	-0.018346909400000
0.021400000900000	0.007438923230000	0.007732460740000	0.002363501120000	-0.010025152900000
0.021449999900000	-0.017423195800000	0.000391602051000	0.005434533120000	-0.013881738300000
0.021500000700000	-0.033164098900000	-0.023089809300000	-0.039528131500000	-0.016726218200000
0.021549999700000	0.048127029100000	-0.009773561730000	-0.038754630800000	-0.000016553482100
0.021600000600000	-0.038388375200000	0.018527841200000	-0.024188289400000	0.007088030690000
0.021649999500000	0.028948655400000	-0.011629199600000	-0.032214328600000	-0.007908331230000
0.021700000400000	0.027161849700000	-0.027279583700000	0.006950902750000	-0.014556475000000
0.021749999400000	-0.005562211850000	0.026277173300000	-0.033049095400000	0.035063158700000
0.021800000200000	-0.027429303200000	-0.025143848700000	0.037331908900000	0.053558889800000
0.021849999200000	-0.014581323600000	-0.035028915900000	-0.004544406200000	0.001822435760000
0.021900000100000	0.000546960393000	-0.019168460700000	0.015413472400000	0.012055947400000
0.021950000900000	0.041524358100000	0.050855629100000	-0.000010613440300	0.070797763800000
0.021999999900000	0.004273725670000	0.009424709710000	-0.051865868300000	-0.005209382620000
0.022050000700000	0.022890534300000	0.015913607600000	-0.026524111600000	-0.022110885000000
0.022099999700000	0.077907115200000	-0.014990355800000	-0.014163399100000	0.037775337700000
0.022150000600000	-0.017763538300000	-0.014756942200000	-0.001136403180000	0.005010899160000
0.022199999500000	-0.015500252100000	-0.014686917900000	-0.020741993600000	-0.004018670410000
0.022250000400000	-0.025693550700000	-0.012049344400000	-0.021132573500000	0.019696353000000
0.022299999400000	0.060413442600000	-0.027419632300000	0.008842536250000	-0.007253439170000
0.022350000200000	-0.034542489800000	-0.040490794900000	-0.013458822900000	-0.006935915910000
0.022399999200000	-0.017065834300000	-0.022167824200000	0.013429937900000	-0.000764056284000
0.022450000000000	-0.007008673160000	0.041577436000000	-0.000064222476800	0.006042849740000
0.022500000900000	0.041166998400000	0.014956612100000	-0.019256258400000	0.018723936800000
0.022549999900000	0.013616164200000	-0.018048074100000	0.021119006000000	-0.031477823900000
0.022600000700000	0.036538321500000	-0.022996444300000	-0.001549958600000	0.031815160100000
0.022649999700000	0.053708668800000	0.034131541800000	0.002225649310000	0.024770110800000
0.022700000600000	0.082501761600000	-0.055744376000000	-0.069564506400000	-0.053029716000000
0.022749999500000	0.017291877400000	0.001745401070000	0.032216075800000	-0.087553761900000
0.022800000400000	0.091180525700000	-0.014523528500000	0.017994364700000	-0.034672901000000
0.022849999400000	-0.001954566920000	0.032065831100000	0.021410025700000	0.009436380120000
0.022900000200000	0.064888961600000	0.012645817400000	0.012595168300000	-0.028659801900000
0.022949999200000	0.028284983700000	0.049991998800000	0.056799650200000	-0.041076287600000
0.023000000000000	-0.010752455300000	-0.006984268780000	-0.018130468200000	-0.051051810400000
0.023050000900000	0.042596444500000	0.012377391600000	-0.003916414920000	0.007134336050000
0.023099999900000	0.054491460300000	-0.011407456400000	0.041015617500000	0.020596001300000
0.023150000700000	0.077192395900000	-0.015597231700000	0.027176827200000	0.038469918100000
0.023199999700000	0.064123190900000	-0.024268547100000	0.049493502800000	-0.027892455500000
0.023250000600000	-0.014513255100000	-0.018958387900000	0.016822625000000	0.000036367069700
0.023299999500000	-0.029743641600000	-0.033943541300000	0.020674817300000	-0.015198136700000
0.023350000400000	0.058320328600000	-0.067823529200000	-0.015090069700000	0.043795049200000
0.023399999400000	-0.027735613300000	-0.038565132800000	-0.016637073800000	-0.035797461900000
0.023450000200000	0.074963145000000	-0.015597231700000	0.004117282570000	0.049106948100000
0.023499999200000	-0.005579228980000	-0.010147023000000	-0.001289571870000	-0.007240208800000
0.023550000000000	0.013735284100000	0.031925782600000	-0.008611034600000	0.007246792320000
0.023600000900000	0.021512141500000	0.011910564300000	0.000977324555000	-0.014060345500000
0.023649999900000	-0.024621468000000	-0.021899400300000	-0.051628459200000	0.027012618300000
0.023700000700000	-0.022936765100000	0.021912338200000	0.032139491300000	-0.008463996460000
0.023749999700000	0.002793229880000	0.005258276130000	0.035179890700000	-0.074773453200000
0.023800000500000	0.019180785900000	-0.045870978400000	0.018316019300000	-0.008338310760000
0.023849999500000	0.092286646400000	-0.023906756200000	-0.005899949000000	0.047003358600000
0.023900000400000	-0.051440563100000	-0.019822018200000	0.016010830200000	0.008192746900000
0.023949999400000	0.035347119000000	-0.031504370300000	-0.030874101400000	-0.024498924600000
0.024000000200000	0.050560489300000	-0.025423945900000	-0.028959494100000	-0.044793956000000
0.024049999200000	-0.016623387100000	-0.010882276100000	0.001352587830000	0.013941242400000
0.024100000000000	0.031160889200000	0.017185712200000	0.002838324060000	-0.025431649800000
0.024150000900000	-0.028892783400000	-0.023509953200000	0.020161701400000	0.019411904700000
0.024199999900000	0.065076157500000	-0.031375993000000	-0.024035120400000	0.011659043800000
0.024250000700000	0.058303311500000	0.003157553500000	0.022482207000000	0.040388289800000
0.024299999700000	0.035925705000000	-0.049138769500000	-0.009039906780000	0.000234819148000
0.024350000500000	-0.004592231940000	0.012692499900000	-0.022143486900000	0.033984903200000
0.024399999500000	0.029884601000000	0.019764933700000	0.024756761300000	0.024869335800000
0.024450000400000	-0.044548600900000	-0.011769248200000	-0.025183886300000	-0.015647962700000
0.024499999400000	0.054219186300000	-0.006389063780000	-0.008289380000000	-0.029910050300000
0.024550000200000	-0.002175790490000	0.018667889800000	0.025116708100000	-0.005599671970000
0.024599999200000	-0.027429303200000	0.012307367300000	0.018185826000000	-0.026000544400000
0.024650000000000	0.027825519400000	-0.029648732400000	0.003228903980000	-0.028864869800000
0.024700000900000	0.041694533100000	0.004254597700000	0.036267388600000	-0.037643067500000
0.024749999900000	-0.045620683600000	-0.027769751800000	0.017067693200000	0.044582244000000
0.024800000700000	0.006281754000000	0.019134717100000	-0.009085857310000	-0.069838605800000
0.024849999700000	0.020082697300000	0.006577063350000	-0.007186566010000	-0.007590807510000
0.024900000500000	0.087572880100000	0.031015470600000	0.018951669300000	0.019530976200000
0.024949999500000	0.013616164200000	0.001862107890000	-0.042522579400000	0.034335501500000
0.025000000400000	0.085309594900000	0.007942533120000	-0.020244196100000	-0.008602913470000
0.025049999400000	0.028540242500000	-0.009213368410000	-0.012187522800000	0.000823560287000
0.025100000200000	0.034377139100000	-0.038553461400000	-0.014086814600000	-0.033733561600000
0.025149999200000	-0.014734478700000	-0.002386020030000	0.012755995600000	0.022110853300000
0.025200000000000	0.040180001400000	0.036769114400000	0.030025763400000	0.039898771800000
0.025250000900000	0.121879540000000	0.016112009100000	-0.008388940240000	-0.035036727800000
0.025299999900000	0.040826655900000	-0.025132177400000	-0.003740270620000	-0.040183253600000
0.025350000700000	0.116859473000000	-0.018923375800000	0.007785672320000	0.034183353200000
0.025399999700000	0.082535795900000	0.036769114400000	0.030025763400000	-0.022726085000000
0.025450000500000	0.054882854200000	0.011105287800000	-0.007998360320000	0.031960692300000
0.025499999500000	0.087862171200000	0.013894580300000	-0.004965620120000	0.029374199000000
0.025550000400000	0.016560139100000	-0.003868196630000	-0.024532917900000	-0.019319325700000
0.025599999400000	-0.018291071100000	-0.021082451600000	0.014693579600000	-0.026708357000000
