Stokes I Q U V
 Time (s)               Data...
0.000383200007000	0.000000157604035	-0.000060132086200	-0.000001220710030	0.000000000000000
-0.000008792339030	0.000000000000000	0.000000000000000	0.000000000000000	0.000000000000000
0.000574800011000	0.000000157604035	-0.000060132086200	-0.000001220710030	0.000000000000000
-0.000008792339030	0.000000000000000	0.000000000000000	0.000000000000000	0.000000000000000
0.000766400015000	0.000000157604035	-0.000060132086200	-0.000001220710030	0.000000000000000
-0.000008792339030	0.000000000000000	0.000000000000000	0.000000000000000	0.000000000000000
0.000958000019000	0.000000157604035	-0.000060132086200	-0.000001220710030	0.000000000000000
-0.000008792339030	0.000000000000000	0.000000000000000	0.000000000000000	0.000000000000000
0.001149600020000	0.000000157604035	-0.000060132086200	-0.000001220710030	-0.000008792339030
0.001341200080000	0.000000157604035	-0.000060132086200	-0.000001220710030	-0.000008792339030
0.001532800030000	0.000000157604035	-0.000060132086200	-0.000001220710030	-0.000008792339030
0.001724400090000	0.000000157604035	-0.000060132086200	-0.000001220710030	-0.000008792339030
0.001916000040000	0.000000157604035	-0.000060132086200	-0.000001220710030	-0.000008792339030
0.002107599980000	0.000000157604035	-0.000060132086200	-0.000001220710030	-0.000008792339030
0.002299200040000	0.000000157604035	-0.000060132086200	-0.000001220710030	-0.000008792339030
0.002490800110000	0.000000157604035	-0.000060132086200	-0.000001220710030	-0.000008792339030
0.002682400170000	0.000000157604035	-0.000060132086200	-0.000001220710030	-0.000008792339030
0.002874000000000	0.000000157604035	-0.000060132086200	-0.000001220710030	-0.000008792339030
0.003065600060000	0.000000157604035	-0.000060132086200	-0.000001220710030	-0.000008792339030
0.003257200120000	0.000000157604035	-0.000060132086200	-0.000001220710030	-0.000008792339030
0.003448800180000	0.000000157604035	-0.000060132086200	-0.000001220710030	-0.000008792339030
0.003640400010000	0.000000157604035	-0.000060132086200	-0.000001220710030	-0.000008792339030
0.003832000070000	0.000000157604035	-0.000060132086200	-0.000001220710030	-0.000008792339030
0.004023599900000	0.000000157604035	-0.000060132086200	-0.000001220710030	-0.000008792339030
0.004215199970000	0.000000157604035	-0.000060132086200	-0.000001220710030	-0.000008792339030
0.004406800030000	0.000000157604035	-0.000060132086200	-0.000001220710030	-0.000008792339030
0.004598400090000	0.000000157604035	-0.000060132086200	-0.000001220710030	-0.000008792339030
0.004790000150000	0.000000157604035	-0.000060132086200	-0.000001220710030	-0.000008792339030
0.004981600210000	0.000000157604035	-0.000060132086200	-0.000001220710030	-0.000008792339030
0.005173200280000	0.000000157604035	-0.000060132086200	-0.000001220710030	-0.000008792339030
0.005364800340000	0.000000157604035	-0.000060132086200	-0.000001220710030	-0.000008792339030
0.005556400400000	0.000000157604035	-0.000060132086200	-0.000001220710030	-0.000008792339030
0.005748000000000	0.000000157604035	-0.000060132086200	-0.000001220710030	-0.000008792339030
0.005939600060000	0.000000157604035	-0.000060132086200	-0.000001220710030	-0.000008792339030
0.006131200120000	0.000000157604035	-0.000060132086200	-0.000001220710030	-0.000008792339030
0.006322800180000	0.000000157604035	-0.000060132086200	-0.000001220710030	-0.000008792339030
0.006514400240000	0.000000157604035	-0.000060132086200	-0.000001220710030	-0.000008792339030
0.006706000310000	0.000000157604035	-0.000060132086200	-0.000001220710030	-0.000008792339030
0.006897600370000	0.000000157604035	-0.000060132086200	-0.000001220710030	-0.000008792339030
0.007089200430000	0.000000157604035	-0.000060132086200	-0.000001220710030	-0.000008792339030
0.007280800030000	0.000000157604035	-0.000060132086200	-0.000001220710030	-0.000008792339030
0.007472400090000	0.000000157604035	-0.000060132086200	-0.000001220710030	-0.000008792339030
0.007664000150000	0.000000157604035	-0.000060132086200	-0.000001220710030	-0.000008792339030
0.007855600680000	0.000000157604035	-0.000060132086200	-0.000001220710030	-0.000008792339030
0.008047199810000	0.000000157604035	-0.000060132086200	-0.000001220710030	-0.000008792339030
0.008238799870000	0.000000157604035	-0.000060132086200	-0.000001220710030	-0.000008792339030
0.008430399930000	0.000000157604035	-0.000060132086200	-0.000001220710030	-0.000008792339030
0.008621999990000	0.000000157604035	-0.000060132086200	-0.000001220710030	-0.000008792339030
0.008813600060000	0.000000157604035	-0.000060132086200	-0.000001220710030	-0.000008792339030
0.009005200120000	0.000000157604035	-0.000060132086200	-0.000001220710030	-0.000008792339030
0.009196800180000	0.000000157604035	-0.000060132086200	-0.000001220710030	-0.000008792339030
0.009388400240000	0.000000157604035	-0.000060132086200	-0.000001220710030	-0.000008792339030
0.009580000300000	0.000000157604035	-0.000060132086200	-0.000001220710030	-0.000008792339030
0.009771600370000	0.000000157604035	-0.000060132086200	-0.000001220710030	-0.000008792339030
0.009963200430000	0.000000157604035	-0.000060132086200	-0.000001220710030	-0.000008792339030
0.010154800500000	0.000000157604035	-0.000060132086200	-0.000001220710030	-0.000008792339030
0.010346400600000	0.000000157604035	-0.000060132086200	-0.000001220710030	-0.000008792339030
0.010538000600000	0.000000157604035	-0.000060132086200	-0.000001220710030	-0.000008792339030
0.010729600700000	0.000000157604035	-0.000060132086200	-0.000001220710030	-0.000008792339030
0.010921200700000	0.000000157604035	-0.000060132086200	-0.000001220710030	-0.000008792339030
0.011112800800000	0.000000157604035	-0.000060132086200	-0.000001220710030	-0.000008792339030
0.011304399900000	0.000000157604035	-0.000060132086200	-0.000001220710030	-0.000008792339030
0.011496000000000	0.000000157604035	-0.000060132086200	-0.000001220710030	-0.000008792339030
0.011687600100000	0.000000157604035	-0.000060132086200	-0.000001220710030	-0.000008792339030
0.011879200100000	-0.001443447660000	0.000551264326000	-0.009115442630000	0.014800248700000
0.012070800200000	-0.015021706000000	-0.001894321410000	0.000981417019000	0.003118179510000
0.012262400200000	-0.010900108100000	0.017670365100000	-0.011666192700000	-0.009603121320000
0.012454000300000	-0.003159036390000	0.023172931700000	-0.013566415800000	-0.004546149170000
0.012645600400000	0.000585968432000	-0.008619681930000	-0.027049439000000	-0.014298218300000
0.012837200400000	0.008327039890000	0.011556400000000	-0.007519940380000	0.002440823470000
0.013028800500000	-0.000020764211500	0.007888021880000	-0.015716576900000	-0.007617447530000
0.013220400500000	-0.008159350600000	-0.007396889380000	0.006949143950000	0.018094239800000
0.013412000600000	-0.009058988650000	-0.007396889380000	0.010105910700000	-0.013435285500000
0.013603600700000	-0.014645112700000	0.009110813960000	-0.011303267400000	0.019755153000000
0.013795200700000	-0.012092651800000	-0.003728510580000	-0.000908534334000	-0.010456775300000
0.013986800800000	0.016779452600000	0.012167796500000	0.017015188900000	0.000186063466000
0.014178400900000	-0.000564731425000	0.004219642840000	0.000974569411000	-0.015281776000000
0.014370000900000	-0.003514707320000	0.018281761600000	-0.012580353800000	-0.005418360700000
0.014561600100000	-0.000167216916000	-0.014733646100000	0.004788710740000	-0.006810187830000
0.014753200100000	-0.000815793173000	-0.008619681930000	0.002604310170000	0.001828419510000
0.014944800200000	-0.003284567270000	0.001774057160000	-0.004630232230000	0.006430728360000
0.015136400200000	0.016214564400000	0.009722210470000	0.024660591000000	0.007525632160000
0.015328000300000	-0.000815793173000	0.019504554600000	-0.019171217500000	-0.000528407807000
0.015519600400000	-0.015712125200000	-0.011065268000000	-0.016880678000000	-0.010484611600000
0.015711201400000	-0.008745160890000	0.020115949200000	0.011745923200000	0.004741977900000
0.015902800500000	0.002991977150000	0.009110813960000	-0.010950612800000	0.008156593890000
0.016094399600000	-0.001610822160000	-0.003728510580000	0.023698495700000	-0.003265667940000
0.016286000600000	0.001987730150000	0.012167796500000	-0.001213254760000	0.003925438970000
0.016477599700000	0.010879501700000	0.001774057160000	0.001327223380000	0.000779909722000
0.016669200700000	-0.004351580050000	0.008499418390000	-0.032051645200000	0.022019192600000
0.016860799900000	-0.008473177440000	0.005442435850000	0.005737110040000	-0.000602638582000
0.017052400900000	-0.012866758700000	0.006053832360000	0.020531458800000	0.004101737400000
0.017244000000000	-0.001924649350000	-0.004951303360000	0.010520193700000	-0.003163600570000
0.017435601000000	0.000188453938000	0.014613382500000	-0.010960884400000	-0.000092301968800
0.017627200100000	0.001213622860000	-0.001282924900000	0.015491587100000	-0.002217158210000
0.017818801100000	-0.006590214090000	0.001774057160000	0.015840817200000	-0.000166532758000
0.018010400200000	0.002238791900000	0.011556400000000	-0.014953064700000	0.003721304470000
0.018202001200000	-0.008787005210000	-0.030629953400000	-0.008927132930000	0.008806113150000
0.018393600400000	0.012532324500000	-0.002505717800000	0.003295922880000	0.014327027800000
0.018585201400000	0.001276388300000	0.001774057160000	-0.014025207600000	0.003108900510000
0.018776800500000	-0.001631743970000	0.008499418390000	-0.024409668500000	-0.004972976170000
0.018968401500000	-0.011632371700000	-0.000671528513000	0.014019343100000	-0.001883119580000
0.019160000600000	-0.009916782380000	0.017058968500000	-0.012789207500000	-0.009408265350000
0.019351599700000	0.009812489150000	0.008499418390000	-0.007725370120000	0.007163756990000
0.019543200700000	-0.016318857700000	0.014613382500000	-0.016569109600000	-0.001511965760000
0.019734799900000	0.001088091990000	-0.013510854000000	0.000789682847000	-0.015179708600000
0.019926400900000	0.003996224140000	0.019504554600000	-0.003045001070000	-0.003822398840000
0.020118000000000	0.002364322780000	-0.016567835600000	-0.005164348990000	0.004287314140000
0.020309601000000	-0.029081165800000	-0.004339907320000	0.010588670100000	-0.005084322300000
0.020501200100000	0.004310051440000	0.001162660770000	-0.010868441300000	0.001893371460000
0.020692801100000	-0.020482299800000	-0.020236214600000	0.000799954345000	-0.001103696410000
0.020884400200000	0.003807927950000	-0.017179232100000	-0.007687707900000	-0.000454177032000
0.021076001200000	0.009561426940000	-0.004951303360000	0.015570335100000	-0.004926581870000
0.021267600400000	-0.008828848600000	-0.002505717800000	0.003997806930000	0.005577073900000
0.021459201400000	0.007364636750000	0.017058968500000	-0.012717306600000	-0.000444898178000
0.021650800500000	-0.028537198900000	-0.009231078440000	-0.008540240120000	-0.012368218000000
0.021842401500000	-0.007217868700000	0.001774057160000	0.005254350600000	-0.007942207160000
0.022034000600000	-0.015837656300000	-0.018402025100000	-0.005722432400000	0.009594814850000
0.022225601600000	0.008285196500000	-0.001282924900000	0.006240412130000	0.000668563589000
0.022417200700000	-0.013745474600000	-0.005562699870000	0.009051372300000	0.001819140740000
0.022608799900000	0.012323106600000	-0.001894321410000	-0.008269757960000	-0.002161485140000
0.022800400900000	-0.011946198500000	0.009110813960000	-0.011090990200000	0.014494046600000
0.022992000000000	0.006841591090000	-0.000060132086200	0.002730991690000	0.008100920360000
0.023183601000000	-0.007217868700000	-0.020236214600000	0.009705322790000	0.008713324550000
0.023375200100000	-0.014080223600000	-0.001894321410000	0.000211056438000	0.025266788900000
0.023566801100000	-0.000229982368000	-0.027572970800000	-0.023933757100000	-0.004379129500000
0.023758400200000	-0.019708192000000	0.011556400000000	-0.000090240158900	-0.009445380420000
0.023950001200000	-0.006673901340000	-0.026350177800000	0.005295436830000	-0.004323456440000
0.024141600400000	-0.006234543400000	0.022561535200000	-0.005154077430000	0.001485102230000
0.024333201300000	0.011423468600000	0.013390589500000	-0.004229644780000	0.007386449260000
0.024524800500000	-0.012029886200000	-0.004339907320000	-0.019835438600000	0.008295776320000
0.024716401500000	0.000146610313000	-0.007396889380000	0.011646632100000	-0.020385142400000
0.024908000600000	0.012511403300000	0.001774057160000	0.001539500550000	0.001160342480000
0.025099601600000	0.001004404740000	-0.000671528513000	0.010376392900000	-0.000361388549000
0.025291200700000	-0.014519582500000	-0.016567835600000	0.009489621970000	0.008305055090000
0.025482801700000	-0.004916469100000	0.006665228870000	0.004685995630000	0.002904766010000
0.025674400900000	-0.003410098380000	-0.004339907320000	0.010379816400000	0.011821738400000
0.025866000000000	0.004582035360000	0.012779193000000	0.020449286300000	0.001438707930000
0.026057601000000	-0.006799432450000	0.009722210470000	0.001875035350000	-0.010716582600000
0.026249200100000	0.006318545900000	-0.016567835600000	-0.000326484093000	-0.011171245900000
0.026440801100000	-0.009477424440000	-0.004339907320000	0.015707287900000	0.003674910400000
0.026632400200000	-0.012176338600000	0.002996850060000	-0.004144048780000	-0.006680284160000
0.026824001200000	-0.012469244200000	-0.006174096370000	0.000919788203000	-0.006596774330000
0.027015600400000	0.000460437528000	-0.004951303360000	0.005685752720000	0.001271688730000
0.027207201300000	0.010816736100000	0.004219642840000	0.026773091400000	0.009576257320000
0.027398800500000	-0.009728486650000	0.009722210470000	-0.021468604000000	-0.005325572100000
0.027590401500000	-0.006276386790000	-0.015345042600000	-0.013227457200000	-0.019485093700000
0.027782000600000	-0.006192699540000	-0.006174096370000	0.006668390240000	0.012517652500000
0.027973601600000	-0.008284880780000	0.019504554600000	-0.003746885340000	-0.016274612400000
0.028165200700000	-0.004267892800000	0.006053832360000	-0.015363923300000	0.000854140497000
0.028356801700000	0.008619945500000	0.000551264326000	-0.013463701100000	0.008425679990000
0.028548400800000	0.004456504250000	-0.008619681930000	-0.015062627400000	0.007135920690000
0.028740001800000	-0.000836714986000	0.002996850060000	-0.006246277600000	0.006041016430000
0.028931601000000	-0.002175711100000	0.006665228870000	0.012327972800000	-0.002291389040000
0.029123200100000	0.003159351650000	0.025007121300000	0.016083909200000	-0.000491292449000
0.029314801100000	-0.009247284380000	0.020115949200000	-0.018890462800000	-0.003247110170000
0.029506400200000	0.009938020260000	0.010333607000000	0.005100278650000	-0.009835092350000
0.029698001200000	0.015210317400000	-0.023293197200000	-0.010902679500000	0.012276402700000
0.029889600400000	0.001150857420000	-0.006174096370000	-0.007143319580000	-0.002987302610000
0.030081201300000	0.014833724100000	0.017058968500000	0.003196631790000	-0.008016438220000
0.030272800500000	0.011465312000000	-0.010453871500000	0.003237717780000	-0.004898745100000
0.030464401500000	0.001422840990000	-0.014122249600000	0.008924691010000	-0.015857065100000
0.030656000600000	-0.001924649350000	-0.003728510580000	-0.004623384680000	0.000204621159000
0.030847601600000	-0.000020764211500	-0.004951303360000	0.021808544200000	-0.008341197860000
0.031039200700000	-0.001464369470000	0.002996850060000	-0.004561755810000	0.004927554630000
0.031230801700000	0.007532011250000	-0.009842474940000	0.012143086600000	0.002450102470000
0.031422402700000	0.003159351650000	0.010945003500000	0.003905363610000	0.000306688482000
0.031614001800000	0.007260027340000	-0.000060132086200	0.018716830800000	0.000455150061000
0.031805601000000	-0.017197573600000	0.017058968500000	-0.003394231200000	0.003461496900000
0.031997200100000	0.005711812990000	-0.006785492880000	-0.003356569210000	-0.001242879080000
0.032188799200000	-0.006339152340000	0.008499418390000	-0.004921257500000	-0.009157736790000
0.032380402100000	0.001360075550000	0.009110813960000	-0.012775511500000	0.001874813810000
0.032572001200000	0.007573854640000	0.013390589500000	-0.005208858750000	0.005289429800000
0.032763600300000	0.001694824660000	0.011556400000000	-0.028552496800000	-0.005947255060000
0.032955199500000	0.017532639200000	-0.008008285430000	-0.002093177750000	0.008815391920000
0.033146802300000	-0.003368254750000	-0.017790628600000	0.003953297160000	0.008991690350000
0.033338401500000	0.027198517700000	0.014613382500000	0.013016162400000	0.000130390385000
0.033530000600000	0.000209375750000	-0.019624818100000	0.005216688850000	0.006440007130000
0.033721599700000	-0.005481358150000	-0.010453871500000	0.011793856500000	0.004649189300000
0.033913202600000	0.002699071770000	0.010333607000000	-0.010252152600000	0.004677026070000
0.034104801700000	0.003787006250000	0.015224779000000	-0.002127415970000	-0.006689562930000
0.034296400800000	0.011025954000000	0.006053832360000	0.003634881460000	-0.011069179500000
0.034488000000000	0.011967435500000	0.001162660770000	-0.013953307600000	-0.002161485140000
0.034679602800000	0.012699699000000	0.013390589500000	0.017785551000000	-0.001066581000000
0.034871202000000	0.008996537890000	0.013390589500000	0.013718046200000	-0.009825813580000
0.035062801100000	0.005921031350000	-0.013510854000000	-0.003907804840000	0.012146498100000
0.035254400200000	-0.006862198000000	0.011556400000000	0.021572301200000	0.000520101981000
0.035445999400000	0.005837344100000	0.004219642840000	0.003004897620000	-0.000881004031000
0.035637602200000	0.011925592100000	-0.004339907320000	0.010311340000000	0.003554285270000
0.035829201300000	0.002427088100000	0.008499418390000	0.004610671660000	0.005892554760000
0.036020800500000	0.014017773800000	0.015224779000000	0.001097827100000	0.014438374000000
0.036212399600000	-0.009310049940000	-0.012899457500000	0.015933260300000	-0.000973792514000
0.036404002500000	-0.001087776730000	0.000551264326000	0.009041100740000	0.000445871206000
0.036595601600000	0.004079911390000	-0.001282924900000	0.006521165840000	0.003470775670000
0.036787200700000	-0.000271825993000	-0.008008285430000	-0.005736127500000	-0.008777303620000
0.036978799800000	-0.002949818270000	-0.006174096370000	-0.012398891200000	-0.011802207700000
0.037170402700000	0.017679091500000	0.002385453550000	-0.017110073900000	-0.001892398460000
0.037362001800000	-0.000418278709000	-0.024515990200000	0.012516283400000	0.002932602540000
0.037553601000000	0.000732421118000	-0.011676664500000	0.022941831500000	0.010541257400000
0.037745200100000	0.016214564400000	0.004219642840000	-0.001969920010000	-0.000537686690000
0.037936803000000	0.000606890244000	0.004219642840000	-0.021810986100000	0.005372939630000
0.038128402100000	-0.000229982368000	0.000551264326000	-0.012970670100000	0.019189143600000
0.038320001200000	-0.003117192770000	-0.012288061000000	-0.002856690670000	-0.008832977150000
0.038511600300000	0.002636306220000	-0.001282924900000	-0.005397168920000	0.006235872400000
0.038703199500000	0.018223058400000	0.001774057160000	0.016330424700000	-0.017703555500000
0.038894802300000	0.005084158850000	0.000551264326000	-0.007923951370000	0.007321497430000
0.039086401500000	0.007615698500000	0.007888021880000	0.000899245264000	-0.014984852600000
0.039278000600000	0.010335533900000	-0.003117114310000	-0.008197858000000	-0.001781052330000
0.039469599700000	-0.015816735100000	0.009110813960000	0.008116668090000	-0.000630475173000
0.039661202600000	-0.000836714986000	-0.002505717800000	-0.014227213300000	-0.008331919090000
0.039852801700000	0.004456504250000	-0.026961574300000	-0.009142833760000	0.000668563589000
0.040044400800000	-0.003305489200000	-0.000060132086200	0.002453661760000	0.002997554370000
0.040236000000000	0.002071417400000	0.010945003500000	0.000262413814000	-0.004509033640000
0.040427602800000	0.010440143800000	0.004219642840000	0.007493532260000	-0.003126485270000
0.040619202000000	0.010774892800000	0.006053832360000	0.005949387330000	0.000789188605000
0.040810801100000	-0.002887052950000	0.006053832360000	0.019196165700000	-0.013555910400000
0.041002400200000	-0.004435267300000	-0.004339907320000	-0.004061877260000	0.007089526390000
0.041194003100000	-0.005376748740000	0.014613382500000	0.000608220173000	0.004751256670000
0.041385602200000	0.013745790300000	0.009110813960000	0.011691141900000	-0.000556244340000
0.041577201300000	-0.012260026300000	0.019504554600000	-0.019239693900000	-0.001808888860000
0.041768800500000	0.008578102100000	0.003608246570000	0.004757896070000	-0.003117206510000
0.041960399600000	-0.011109326000000	0.018281761600000	-0.006900228090000	0.009112315250000
0.042152002500000	-0.000753027736000	0.005442435850000	0.011978742700000	0.023550203100000
0.042343601600000	0.014310679400000	0.006053832360000	0.011064581600000	-0.005937976300000
0.042535200700000	-0.004665407350000	0.012167796500000	-0.013830049900000	-0.001103696410000
0.042726799800000	-0.007845522840000	-0.004339907320000	0.003792377420000	-0.002699658270000
0.042918402700000	-0.002635991200000	0.013390589500000	-0.007872594520000	-0.003256389170000
0.043110001800000	0.001548371980000	-0.006785492880000	0.000358280930000	0.012693950900000
0.043301601000000	0.005565360650000	0.006053832360000	0.000618491613000	-0.002551196610000
0.043493200100000	-0.003514707320000	-0.005562699870000	-0.007845203390000	-0.007144226230000
0.043684802900000	0.011862826500000	-0.014122249600000	0.020490372600000	0.003053227440000
0.043876402100000	-0.014373129200000	0.004219642840000	-0.019845711100000	0.019077798400000
0.044068001200000	0.016904983700000	-0.021459007600000	-0.013429462900000	0.014846643400000
0.044259600300000	0.001171779240000	-0.014122249600000	0.004857187160000	0.006616305090000
0.044451203200000	0.018013840500000	-0.000060132086200	-0.018157765300000	0.010634046000000
0.044642802300000	-0.005837028850000	-0.004951303360000	-0.010930070700000	0.004203804770000
0.044834401500000	0.004498347640000	-0.007396889380000	-0.003986552820000	0.012591883500000
0.045026000600000	-0.002510460330000	0.002385453550000	-0.033934749700000	-0.003989418040000
0.045217599700000	-0.003535629250000	-0.008008285430000	0.001344342480000	0.006217314400000
0.045409202600000	0.002531697280000	0.006665228870000	-0.024478144900000	-0.005232783500000
0.045600801700000	-0.002071102150000	-0.028184367300000	-0.015589895700000	0.013380585200000
0.045792400800000	0.006632373200000	0.014613382500000	-0.013135013200000	0.006829718590000
0.045984000000000	0.001067170170000	0.011556400000000	0.018347058400000	0.018901499000000
0.046175602800000	-0.013222429900000	0.021338742200000	0.011742498700000	-0.003117206510000
0.046367202000000	-0.001924649350000	-0.013510854000000	-0.025988053500000	0.001809861860000
0.046558801100000	0.008661788890000	0.004219642840000	0.033151678700000	0.011766065800000
0.046750400200000	-0.001589900350000	-0.020236214600000	0.013351696500000	-0.011384659400000
0.046942003100000	-0.003179958320000	-0.004339907320000	0.001337494930000	-0.012433169400000
0.047133602200000	-0.009979547930000	0.017058968500000	-0.006198343820000	-0.005177110430000
0.047325201300000	0.009854332540000	-0.009842474940000	-0.001107116230000	0.002236688980000
0.047516800500000	-0.018285509200000	0.006053832360000	-0.012419434300000	0.007590583990000
0.047708403300000	-0.014226676900000	-0.008008285430000	-0.012398891200000	-0.003776004540000
0.047900002400000	-0.005021078050000	-0.020847611100000	0.003326737320000	-0.007162784230000
0.048091601600000	-0.001087776730000	-0.001282924900000	0.005189298190000	-0.001818167740000
0.048283200700000	-0.012260026300000	0.011556400000000	0.004888001360000	0.010086594100000
0.048474799800000	-0.002447694770000	-0.023904593700000	0.004942782690000	0.002106785080000
0.048666402700000	-0.004016831050000	-0.019624818100000	0.012156781700000	0.001809861860000
0.048858001800000	-0.005711497740000	-0.014122249600000	0.019367357700000	0.011849575700000
0.049049601000000	0.002008651850000	0.014001986000000	0.004254593980000	-0.005056485530000
0.049241200100000	-0.004644485190000	0.000551264326000	0.016542701100000	0.000195342320000
0.049432802900000	0.004456504250000	-0.006785492880000	0.008702142160000	-0.006615331860000
0.049624402100000	-0.003033505520000	0.004831039350000	0.010855728800000	-0.004258504600000
0.049816001200000	-0.005041999740000	0.005442435850000	0.021582571800000	0.003507890970000
0.050007600300000	-0.013222429900000	0.004219642840000	-0.012416010700000	0.009863901880000
0.050199203200000	-0.009707564490000	0.009722210470000	0.006151393060000	0.006931785960000
0.050390802300000	0.001213622860000	0.008499418390000	0.008678175510000	-0.003228552640000
0.050582401500000	-0.011988042900000	-0.010453871500000	-0.000685985724000	-0.001270715610000
0.050774000600000	0.003724240700000	-0.006785492880000	0.001481295560000	0.001438707930000
0.050965603400000	-0.017783384800000	-0.009231078440000	-0.006016881210000	-0.010141294400000
0.051157202600000	0.009979863650000	-0.017179232100000	0.004371003710000	-0.005019370000000
0.051348801700000	0.009498661380000	-0.019013421600000	0.008441931570000	-0.007366918960000
0.051540400800000	-0.002531382020000	0.012167796500000	-0.005770365710000	-0.001595475360000
0.051732000000000	0.006464998700000	-0.001894321410000	0.013810489300000	0.001512938760000
0.051923602800000	-0.008117506280000	0.023172931700000	-0.014620953200000	-0.003098648740000
0.052115202000000	-0.000083529659600	0.006665228870000	-0.010806812900000	0.011738229500000
0.052306801100000	0.013955008200000	-0.005562699870000	0.021318938600000	-0.000899561739000
0.052498400200000	-0.003723925450000	-0.012899457500000	0.007168268780000	-0.003349177540000
0.052690003100000	0.017469873700000	-0.002505717800000	-0.009810479360000	0.002774862110000
0.052881602200000	-0.005837028850000	0.023784328300000	0.004939358680000	-0.006355524530000
0.053073201300000	-0.005104765300000	0.001774057160000	-0.003579117820000	-0.011338265600000
0.053264800500000	-0.007155103140000	0.015836175500000	-0.014258028000000	0.013120777900000
0.053456403300000	0.000837030238000	0.017058968500000	-0.008581326340000	0.006152362560000
0.053648002400000	-0.011946198500000	-0.004951303360000	0.003720476990000	-0.006884418890000
0.053839601600000	-0.018808554900000	-0.004339907320000	0.004069707360000	0.007135920690000
0.054031200700000	-0.000334591430000	-0.011065268000000	-0.014145041800000	-0.004082206640000
0.054222803600000	0.002845524580000	0.015224779000000	-0.011382015400000	-0.013797160200000
0.054414402700000	0.002950133520000	-0.002505717800000	-0.014788720800000	0.002951160070000
0.054606001800000	-0.008703317490000	-0.001894321410000	-0.015771359200000	0.009947411720000
0.054797601000000	0.010774892800000	0.004219642840000	-0.006318178030000	0.003470775670000
0.054989200100000	0.001632059230000	0.011556400000000	-0.005349235610000	0.007098805160000
0.055180802900000	0.008285196500000	-0.008619681930000	0.015714136900000	0.001410871390000
0.055372402100000	-0.014938018300000	-0.023904593700000	0.008869909680000	0.014484767800000
0.055564001200000	0.003075664400000	-0.007396889380000	-0.011628530900000	-0.001409898400000
0.055755600300000	0.001611137410000	-0.001894321410000	0.013248981900000	0.001420150280000
0.055947203200000	-0.000711184111000	0.003608246570000	0.005952810870000	-0.017684998000000
0.056138802300000	-0.000167216916000	0.004219642840000	-0.000357298501000	0.008165872660000
0.056330401500000	0.010105394800000	-0.004951303360000	-0.032106429300000	-0.001326388800000
0.056522000600000	-0.006506526840000	0.009110813960000	-0.000367569999000	0.000612890464000
0.056713603400000	-0.002175711100000	-0.014733646100000	-0.001589875550000	0.006170920560000
0.056905202600000	-0.004832781850000	-0.005562699870000	-0.000624356850000	-0.004397687500000
0.057096801700000	-0.000857636798000	0.010945003500000	0.017648598200000	0.002542890840000
0.057288400800000	-0.004351580050000	-0.006174096370000	0.015501858700000	0.006161641330000
0.057480003700000	0.005063236690000	-0.005562699870000	-0.020112769700000	0.003851208370000
0.057671602800000	0.001652981040000	0.001774057160000	0.009530708190000	-0.001270715610000
0.057863201900000	0.007887681950000	0.014001986000000	0.012314277700000	-0.005186389670000
0.058054801100000	0.009833410380000	0.007888021880000	-0.001836390930000	0.006105968260000
0.058246400200000	0.001067170170000	0.004831039350000	0.000693815760000	0.007191593760000
0.058438003100000	-0.000690262299000	0.004831039350000	0.004477142360000	-0.011412496700000
0.058629602200000	0.000209375750000	0.026841310800000	-0.010981427500000	0.002923323540000
0.058821201300000	0.001506528350000	0.004219642840000	-0.002462951000000	0.008342171090000
0.059012800500000	-0.013034133200000	0.004219642840000	0.016114722900000	0.010476306100000
0.059204403300000	-0.020294003200000	0.007276624910000	-0.002185621070000	-0.001437734930000
0.059396002400000	-0.011716058500000	0.010945003500000	0.006360246330000	-0.006457591430000
0.059587601600000	-0.001045933110000	0.004219642840000	0.014221348800000	0.000677842414000
0.059779200700000	-0.004644485190000	0.010333607000000	0.010776980800000	-0.005065764300000
0.059970803600000	-0.009163597600000	0.004831039350000	0.000971145579000	-0.016562257000000
0.060162402700000	0.003243038900000	0.014613382500000	-0.023581104400000	0.010995921700000
0.060354001800000	0.002699071770000	0.002996850060000	-0.004914409480000	0.000046880748400
0.060545601000000	-0.007866445000000	0.009722210470000	-0.004575450900000	-0.009259804150000
0.060737200100000	-0.002071102150000	-0.016567835600000	-0.002709466270000	-0.001901677340000
0.060928802900000	-0.002552303950000	0.000551264326000	0.004203236200000	0.002700631270000
0.061120402100000	0.010461065000000	-0.009842474940000	-0.006787241900000	-0.014613699200000
0.061312001200000	-0.004581720100000	-0.013510854000000	0.011516526300000	-0.004304898900000
0.061503600300000	-0.000355513243000	-0.005562699870000	-0.015908312100000	0.007340055420000
0.061695203200000	-0.002573225650000	-0.018402025100000	-0.023108616500000	0.008796834390000
0.061886802300000	0.001569293790000	-0.001282924900000	-0.004907561930000	-0.004147158470000
0.062078401400000	0.019729429900000	0.000551264326000	-0.019701909300000	-0.010428939000000
0.062270000600000	0.000732421118000	-0.001282924900000	-0.016545143000000	0.011033036700000
0.062461603400000	-0.004707250740000	-0.001894321410000	0.016826879200000	-0.001103696410000
0.062653198800000	-0.007866445000000	-0.004951303360000	0.019004432500000	0.002181015680000
0.062844805400000	-0.001820040280000	0.012779193000000	0.016453681500000	0.002552169610000
0.063036404600000	-0.004309736190000	0.005442435850000	-0.002394474340000	0.000622169347000
0.063228003700000	0.001276388300000	-0.013510854000000	-0.010214490800000	0.003572843040000
0.063419602800000	-0.001882805720000	-0.000671528513000	0.021873597100000	0.010346402400000
0.063611201900000	0.001067170170000	-0.009231078440000	-0.008612141010000	0.026111165100000
0.063802801100000	0.022114517200000	-0.004339907320000	-0.004832237960000	0.000492265448000
0.063994400200000	0.004414660390000	-0.000060132086200	0.003011745400000	0.006699814930000
0.064185999300000	0.011318859600000	0.017058968500000	0.001443633460000	0.007803997490000
0.064377598500000	-0.005021078050000	0.002385453550000	0.003008321390000	0.001410871390000
0.064569205000000	0.010502908400000	-0.004951303360000	-0.017729787200000	0.006931785960000
0.064760804200000	-0.002740600150000	-0.006785492880000	0.008072158320000	0.001206736780000
0.064952403300000	0.002866446270000	0.002385453550000	0.011211806000000	0.006950343490000
0.065144002400000	-0.003870378250000	0.005442435850000	0.011204958900000	0.014957989600000
0.065335601600000	0.016444703600000	0.001774057160000	-0.021807562600000	0.004964670170000
0.065527200700000	0.006778825540000	0.000551264326000	0.009321854450000	-0.013323939400000
0.065718799800000	0.000000157604035	-0.005562699870000	-0.009245548400000	0.002997554370000
0.065910399000000	0.006464998700000	-0.002505717800000	-0.007009790740000	-0.009788698520000
0.066102005500000	0.009645114650000	0.017670365100000	0.020932044800000	0.011070151800000
0.066293604700000	-0.006234543400000	0.002996850060000	-0.009539997210000	-0.009491775180000
0.066485203800000	0.004372817000000	0.025007121300000	-0.009926889090000	-0.000203648146000
0.066676802900000	-0.001757274850000	0.014001986000000	0.017782125600000	0.001076832880000
0.066868402100000	0.002468931720000	0.002385453550000	0.002169484270000	0.013992989400000
0.067060001200000	-0.010397984600000	-0.010453871500000	-0.009800207800000	-0.008285524320000
0.067251600300000	0.003870693500000	-0.006785492880000	0.007510651370000	-0.004787398970000
0.067443199500000	0.006088405850000	-0.005562699870000	-0.011700430900000	0.013130056700000
0.067634798600000	0.002071417400000	0.008499418390000	-0.007307663090000	-0.000741821306000
0.067826405200000	-0.021674843500000	-0.001282924900000	-0.008201281540000	-0.001335667560000
0.068018004300000	-0.000773949549000	-0.009231078440000	0.004360732160000	0.000798467430000
0.068209603400000	0.004310051440000	0.033566672400000	-0.002298607260000	0.004899718330000
0.068401202600000	0.004749409850000	-0.008619681930000	0.001553195880000	0.003647073640000
0.068592801700000	-0.000941324106000	0.011556400000000	-0.006681103260000	-0.007710236120000
0.068784400800000	-0.006883119700000	-0.001282924900000	-0.011988031700000	0.013937315900000
0.068976000000000	-0.010628124700000	0.002996850060000	0.030207186900000	0.004370823970000
0.069167599100000	-0.002384929220000	0.021950138700000	0.003679391230000	0.014939432000000
0.069359205700000	0.020859208000000	0.025618517800000	0.007808524180000	-0.001511965760000
0.069550804800000	0.010335533900000	0.002385453550000	0.008476169780000	0.016424046800000
0.069742403900000	-0.000543809612000	0.001774057160000	0.008479594250000	0.019216980800000
0.069934003100000	0.000355828466000	0.023784328300000	-0.008238943290000	-0.002068696540000
0.070125602200000	0.004812174940000	-0.002505717800000	0.011078276700000	-0.014288939500000
0.070317201300000	-0.012029886200000	-0.003117114310000	0.025519970800000	0.004816208500000
0.070508800400000	0.010858579500000	-0.009231078440000	-0.008471763690000	0.011487700000000
0.070700399600000	0.016068112100000	-0.016567835600000	0.002549528840000	0.002348035110000
0.070891998700000	-0.006736666900000	0.008499418390000	0.016388630500000	-0.004555427930000
0.071083605300000	-0.009038066490000	0.015224779000000	0.015748374200000	-0.009825813580000
0.071275204400000	-0.000585653237000	-0.003117114310000	0.000002203114950	-0.000825330964000
0.071466803600000	-0.008703317490000	-0.001894321410000	-0.009112019090000	0.011496978800000
0.071658402700000	0.005837344100000	-0.020236214600000	0.002272199140000	0.003108900510000
0.071850001800000	0.003535944270000	0.004219642840000	0.003497928380000	0.006709093690000
0.072041600900000	-0.020565986600000	0.012779193000000	-0.015723425900000	0.004983227700000
0.072233200100000	0.004749409850000	-0.000060132086200	-0.009115442630000	-0.004972976170000
0.072424799200000	0.000397672091000	0.004219642840000	0.001885306910000	-0.007988601920000
0.072616405800000	-0.005690576040000	0.006053832360000	-0.005338964050000	-0.007366918960000
0.072808004900000	-0.009958626700000	0.022561535200000	0.000594524841000	0.001364477210000
0.072999604000000	-0.002196633020000	-0.007396889380000	-0.006581812630000	-0.004722447130000
0.073191203200000	-0.000229982368000	0.006053832360000	0.008191992530000	0.013983710700000
0.073382802300000	-0.011632371700000	0.005442435850000	-0.006530454850000	-0.004536869940000
0.073574401400000	-0.003703003750000	0.011556400000000	0.019610449700000	-0.006708120460000
0.073766000600000	0.009582349100000	0.007888021880000	-0.020414065600000	-0.001985186940000
0.073957599700000	0.003284882520000	-0.002505717800000	-0.007780150980000	0.013111498200000
0.074149198800000	-0.011004717100000	0.017058968500000	0.014553459400000	-0.000259321241000
0.074340805400000	-0.005251218100000	0.003608246570000	0.015837393700000	0.009687603450000
0.074532404500000	-0.004414345600000	0.021338742200000	0.015176595200000	0.002728467810000
0.074724003700000	-0.017364949000000	-0.015345042600000	0.002333828020000	0.014178565700000
0.074915602800000	-0.012029886200000	0.011556400000000	-0.004294697200000	-0.003664658400000
0.075107201900000	0.017971996200000	0.001774057160000	-0.018510418000000	0.009446353650000
0.075298801100000	0.014331600600000	0.007276624910000	-0.004640503790000	0.004036785570000
0.075490400200000	-0.001694509410000	0.012779193000000	0.000046712841100	0.006866834130000
0.075681999300000	0.007678463590000	0.007888021880000	-0.007444616410000	0.010467027300000
0.075873605900000	-0.014477738200000	0.002385453550000	-0.019773811100000	0.016442604400000
0.076065205000000	0.003745162630000	0.002385453550000	0.010160692000000	0.001373755980000
0.076256804200000	-0.003451942000000	0.011556400000000	0.012389602100000	0.014234239200000
0.076448403300000	0.003473178950000	0.004219642840000	0.004477142360000	-0.011199083200000
0.076640002400000	0.005188767800000	-0.002505717800000	-0.024745203600000	0.000455150061000
0.076831601600000	-0.003075349140000	-0.018402025100000	0.007106639910000	-0.002013023480000
0.077023200700000	-0.010000470100000	-0.001894321410000	-0.001120811440000	-0.004982254930000
0.077214799800000	-0.010397984600000	-0.005562699870000	-0.000483980053000	-0.003395571840000
0.077406399000000	-0.004749094600000	-0.000671528513000	-0.009885803800000	0.005530680060000
0.077598005500000	-0.006862198000000	-0.008008285430000	0.002672786590000	-0.000816052081000
0.077789604700000	-0.004163283390000	-0.009842474940000	0.022517276900000	-0.005056485530000
0.077981203800000	-0.017009278800000	-0.003117114310000	0.015566911500000	0.008119478820000
0.078172802900000	-0.001736353040000	-0.000060132086200	-0.011779178900000	-0.012201198400000
0.078364402100000	-0.007552617700000	-0.006785492880000	0.006178783250000	0.002190294680000
0.078556001200000	0.005858265790000	-0.001282924900000	0.012759375400000	-0.009816534820000
0.078747600300000	0.004540191500000	-0.004339907320000	-0.002028125110000	-0.016302449600000
0.078939199400000	-0.012427400800000	0.009110813960000	-0.024060439300000	-0.005075043530000
0.079130806000000	-0.001882805720000	0.002385453550000	0.009318430910000	0.002385150410000
0.079322405200000	-0.003744847370000	0.012779193000000	0.008041344580000	0.012257844200000
0.079514004300000	-0.004644485190000	0.005442435850000	-0.023146277300000	0.007405007260000
0.079705603400000	-0.011695137200000	0.008499418390000	-0.016839591800000	-0.008777303620000
0.079897202600000	-0.003305489200000	-0.012899457500000	-0.002997067520000	-0.016070477700000
0.080088801700000	-0.008724239650000	-0.003728510580000	0.014447321200000	0.000826303964000
0.080280400800000	0.003222117200000	0.000551264326000	0.038626372800000	0.007488516630000
0.080471999900000	-0.000941324106000	0.010945003500000	-0.001350207720000	0.012053710400000
0.080663599100000	-0.008347646330000	0.007276624910000	0.016600906800000	-0.000825330964000
0.080855205700000	0.004456504250000	0.001162660770000	-0.009536573660000	0.016414769000000
0.081046804800000	-0.006360074040000	-0.003728510580000	0.000844464055000	-0.001391340630000
0.081238403900000	-0.008410411890000	-0.001282924900000	-0.016473243000000	0.002719189040000
0.081430003000000	0.010565673900000	0.018893158100000	-0.005147229880000	0.005382218400000
0.081621602200000	-0.004665407350000	0.003608246570000	-0.006386654450000	0.001160342480000
0.081813201300000	-0.007552617700000	0.019504554600000	-0.024009082500000	-0.010716582600000
0.082004800400000	-0.002635991200000	0.003608246570000	-0.023700937600000	-0.003998696800000
0.082196399600000	-0.002071102150000	-0.008619681930000	-0.002582784740000	-0.015272497200000
0.082388006200000	0.009477740150000	-0.001282924900000	0.004627790770000	0.005140968130000
0.082579605300000	-0.015628438400000	0.003608246570000	-0.010173404600000	0.006542074490000
0.082771204400000	0.005335220600000	-0.020236214600000	0.005637818950000	0.012016594400000
0.082962803500000	0.002552618970000	0.017670365100000	-0.009563963860000	-0.013806439000000
0.083154402700000	-0.007531696000000	0.008499418390000	0.013796794200000	0.003275919940000
0.083346001800000	0.005669969600000	-0.014122249600000	0.016354391400000	0.012768181000000
0.083537600900000	0.007573854640000	0.009722210470000	0.017580119900000	-0.001734658030000
0.083729200100000	0.005858265790000	-0.025127384800000	0.004733929410000	-0.012340380800000
0.083920799200000	0.021591471500000	0.006053832360000	-0.001274883630000	0.011432027400000
0.084112405800000	-0.012762149800000	0.005442435850000	0.006579371170000	-0.009436101650000
0.084304004900000	0.003766084320000	-0.012899457500000	0.010746166100000	-0.018343795100000
0.084495604000000	0.001841277350000	-0.011065268000000	-0.009447554130000	-0.003497639210000
0.084687203200000	-0.015084471600000	0.026841310800000	0.008791161700000	-0.001678984960000
0.084878802300000	-0.008054741660000	-0.002505717800000	-0.017312079700000	-0.005483312530000
0.085070401400000	0.005690891300000	0.006053832360000	0.003775258320000	0.005280151030000
0.085262000600000	0.009184834550000	0.004219642840000	-0.018585743400000	0.000520101981000
0.085453599700000	-0.008096585050000	-0.003728510580000	0.004422361030000	-0.008062832060000
0.085645206300000	0.002113261030000	-0.013510854000000	0.005980201530000	0.002088227310000
0.085836805400000	-0.007029572500000	0.018281761600000	-0.017065564200000	0.005744093560000
0.086028404500000	0.006946200040000	0.015224779000000	-0.002897776660000	0.006486401430000
0.086220003700000	-0.000125373292000	-0.006174096370000	-0.019198607700000	0.011756787100000
0.086411602800000	-0.005774263290000	-0.001282924900000	-0.011988031700000	0.012369191300000
0.086603201900000	0.006925278340000	0.013390589500000	0.019535124300000	0.005790487400000
0.086794801100000	0.019499288900000	0.023784328300000	-0.007821236740000	-0.012210477100000
0.086986400200000	-0.008431334050000	0.017670365100000	-0.002483493880000	0.007154478230000
0.087177999300000	-0.006757588590000	-0.011676664500000	-0.004962343260000	0.006885391660000
0.087369605900000	0.003954380750000	0.018281761600000	-0.006900228090000	-0.006476149430000
0.087561205000000	0.013641181400000	0.005442435850000	0.001953783450000	0.006115247500000
0.087752804200000	0.007929525340000	0.009110813960000	0.006363669880000	0.000789188605000
0.087944403300000	0.010670283800000	0.004831039350000	-0.001552213450000	0.010383517500000
0.088136002400000	0.004602957050000	-0.020847611100000	0.008582308890000	0.007340055420000
0.088327601600000	-0.013473491200000	-0.015956439100000	-0.008389592170000	0.012480537400000
0.088519200700000	-0.010335219100000	-0.017179232100000	0.001638791520000	-0.002430571710000
0.088710799800000	-0.018201822400000	-0.023904593700000	-0.015668643600000	-0.008304082790000
0.088902406400000	0.003556866200000	0.005442435850000	-0.019150674300000	0.007850391790000
0.089094005500000	-0.005460435990000	0.009722210470000	0.017367843500000	0.007423564790000
0.089285604700000	-0.007385243200000	-0.008008285430000	-0.004335783420000	0.003739862240000
0.089477203800000	-0.003744847370000	-0.001894321410000	-0.011286147900000	0.000687121239000
0.089668802900000	0.007511089090000	0.009722210470000	0.011410388200000	-0.006114274260000
0.089860402000000	0.008222430940000	0.012779193000000	-0.012498182200000	0.002078948540000
0.090052001200000	-0.000732105924000	-0.017790628600000	0.020007612200000	0.009112315250000
0.090243600300000	-0.013096898800000	-0.008619681930000	0.006110306830000	-0.008647399950000
0.090435199400000	0.006485920400000	-0.001282924900000	0.014300096800000	0.017908662600000
0.090626806000000	0.008640867660000	0.014001986000000	0.003552709710000	-0.008016438220000
0.090818405200000	-0.010690890300000	-0.001282924900000	-0.014651767900000	-0.001029465580000
0.091010004300000	-0.003598394570000	0.003608246570000	0.006723171570000	0.010606209700000
0.091201603400000	-0.003263645570000	-0.009231078440000	0.004220355770000	-0.016395237300000
0.091393202500000	-0.003828534620000	-0.012288061000000	0.014317215400000	0.009483468720000
0.091584801700000	-0.007448008750000	-0.001894321410000	0.015844240800000	-0.004908023870000
0.091776400800000	-0.004184205550000	-0.015956439100000	0.002967235630000	0.014772412400000
0.091967999900000	0.003201195270000	-0.001894321410000	0.021243613200000	-0.010252640600000
0.092159606500000	0.003682397070000	-0.013510854000000	-0.005517002660000	-0.008452543990000
0.092351205600000	0.002719993470000	0.007276624910000	0.000128884640000	-0.002597590910000
0.092542804800000	-0.004205127250000	-0.007396889380000	0.022164622300000	-0.010976390900000
0.092734403900000	0.003075664400000	-0.005562699870000	-0.005811451930000	0.006319381760000
0.092926003000000	-0.002133867470000	0.005442435850000	-0.006811208560000	0.010346402400000
0.093117602200000	0.003996224140000	0.028675500300000	-0.017151160200000	0.000065438442100
0.093309201300000	0.001025326550000	0.008499418390000	0.013724894300000	0.005372939630000
0.093500800400000	0.004247285890000	-0.008619681930000	0.014382268300000	0.016618903700000
0.093692399600000	-0.009058988650000	-0.008619681930000	0.001132065430000	-0.003070812210000
0.093884006100000	-0.007824601610000	0.002385453550000	0.013105181000000	-0.004137879700000
0.094075605300000	-0.002552303950000	-0.007396889380000	0.021603114900000	-0.001010907930000
0.094267204400000	-0.000815793173000	-0.016567835600000	-0.014908555000000	0.006634862630000
0.094458803500000	-0.011485919400000	0.001162660770000	-0.007365868430000	0.016405489300000
0.094650402700000	-0.002343085590000	-0.001282924900000	0.003997806930000	0.010810344500000
0.094842001800000	0.004038068000000	-0.011065268000000	0.009968957860000	0.005345102870000
0.095033600900000	-0.000878558611000	-0.006174096370000	-0.003216192360000	-0.003590427570000
0.095225200100000	-0.003640238200000	0.021950138700000	0.017138447600000	-0.010846486300000
0.095416806600000	-0.002322163900000	0.012167796500000	0.000820497284000	0.011005200400000
0.095608405800000	-0.015293689400000	-0.029407160400000	0.005583038090000	0.015217796900000
0.095800004900000	0.008891928940000	-0.015345042600000	0.005559070970000	-0.000398503966000
0.095991604000000	0.006485920400000	-0.003728510580000	-0.021516537300000	0.005317266560000
0.096183203200000	0.001443762800000	0.012779193000000	-0.015233818400000	0.010921690600000
0.096374802300000	-0.003912221640000	0.015836175500000	-0.002620446960000	0.001559332940000
0.096566401400000	0.002364322780000	0.012167796500000	-0.016144555100000	-0.000723263656000
0.096758000600000	-0.006506526840000	-0.006785492880000	-0.000059425736300	-0.002115090840000
0.096949599700000	-0.004581720100000	0.008499418390000	0.008750076410000	0.001763467560000
0.097141206300000	0.000083844861400	0.019504554600000	0.023523880200000	0.004816208500000
0.097332805400000	0.013118135700000	0.001774057160000	0.004973596890000	0.000037601901600
0.097524404500000	0.006402233150000	0.007276624910000	0.016953561500000	0.003906881440000
0.097716003700000	0.010419221600000	0.005442435850000	0.016956985000000	0.007135920690000
0.097907602800000	-0.000606575049000	0.009110813960000	-0.002610175400000	0.018075682200000
0.098099201900000	-0.011590528300000	0.001162660770000	-0.017668157800000	0.019903615100000
0.098290801000000	0.006674216590000	-0.004339907320000	-0.005393744910000	0.012758902300000
0.098482400200000	-0.007991976100000	0.003608246570000	0.003706781890000	-0.008721630090000
0.098674006800000	-0.007238790390000	-0.010453871500000	-0.012323566700000	0.005781208630000
0.098865605900000	-0.014854331500000	0.000551264326000	0.004973596890000	0.004528564400000
0.099057205000000	-0.008577786390000	-0.007396889380000	0.000919788203000	-0.005891582000000
